# .PCD v0.7 - Point Cloud Data file format
VERSION 0.7
FIELDS x y z intensity
SIZE 4 4 4 4
TYPE F F F F
COUNT 1 1 1 1
WIDTH 1081
HEIGHT 1
VIEWPOINT 0 0 0 1 0 0 0
POINTS 1081
DATA ascii
1.9167026 -0.70279086 3.3949592 0.00048828125
1.7342544 -0.59614998 2.9092236 0.0009765625
1.544613 -0.514871 2.5280101 0.00024414062
2.0917196 -0.65739757 3.2737238 0.00048828125
1.6604617 -0.5073632 2.546617 0.00024414062
1.9077359 -0.55223942 2.8199666 0.00073242188
2.166374 -0.59575284 3.0996709 0.00073242188
-1.7560102 -0.46210787 2.5892444 0.00024414062
-2.0494237 -0.64044487 3.4314959 0.00024414062
-1.6554879 -0.57085788 3.0174785 0.00024414062
-1.8612117 -0.68933767 3.6244125 0.00073242188
-1.3484808 -0.51864648 2.7225752 0.00024414062
-1.5128969 -0.68768036 3.6072557 0.00073242188
1.3723334 -0.62378782 3.272105 0.00048828125
1.5407975 -0.66991192 3.5122051 0.0009765625
1.2929078 -0.53871155 2.8240552 0.00048828125
1.764905 -0.70596194 3.7022829 0.0009765625
1.4040745 -0.54002869 2.8348186 0.00073242188
1.613966 -0.59776521 3.142941 0.00073242188
1.6492522 -0.58901858 3.1040721 0.00024414062
1.7359753 -0.55999202 2.9846969 0.00048828125
1.5759557 -0.47756234 2.5740786 0.00073242188
1.9252558 -0.5662517 3.0724182 0.0014648438
1.717034 -0.4905811 2.6811974 0.00048828125
1.9678378 -0.54662156 3.0109007 0.00048828125
2.2344644 -0.60390931 3.3542347 0.00048828125
2.0946815 -0.55123186 3.0886166 0.0009765625
1.9652537 -0.50391126 2.849468 0.00048828125
-1.9942169 -0.5789662 3.4236529 0.00024414062
-1.483402 -0.53402478 3.1110992 0.00073242188
-1.5888996 -0.62174332 3.6224763 0.00024414062
-1.5334886 -0.62733626 3.6576006 0.00073242188
1.3377913 -0.6336906 3.7084808 0.00073242188
1.5373707 -0.62892443 3.6668601 0.0009765625
1.254904 -0.49104941 2.8610117 0.00024414062
1.6958089 -0.63592827 3.7040472 0
1.5265549 -0.52842283 3.08079 0.00073242188
1.6622322 -0.55407745 3.234844 0.00073242188
1.5337708 -0.47599787 2.7926099 0.00048828125
1.6810163 -0.50430489 2.9692588 0.00073242188
1.7375356 -0.50444579 2.9829848 0.0012207031
1.9167786 -0.53909397 3.2041283 0.0009765625
1.8399928 -0.50181621 2.9999528 0.00048828125
1.7232636 -0.44312501 2.6854608 0.00048828125
1.8987972 -0.47469929 2.8991113 0.00048828125
1.7726117 -0.43117583 2.6551144 0.00048828125
1.7377137 -0.40101084 2.5138316 0.00048828125
2.3500721 -0.52876627 3.346297 0
-2.1400445 -0.45053568 3.1421778 0.00048828125
-2.1016533 -0.52541333 3.5081518 0
-1.5398383 -0.39737761 2.6402268 0
-1.8576218 -0.4953658 3.2776189 0
-1.6594201 -0.47412011 3.1182969 0.00024414062
-1.6312864 -0.50193423 3.291115 0.0009765625
-1.6892086 -0.54054677 3.5422866 0.00048828125
-1.4555192 -0.55448347 3.6424472 0.00048828125
1.0896811 -0.58116329 3.854908 0.0012207031
1.248938 -0.58773547 3.8852103 0.0014648438
1.2229183 -0.5435192 3.5867968 0.00073242188
1.3589562 -0.57219213 3.7697887 0.00024414062
1.4544762 -0.52890044 3.4704027 0
1.5445371 -0.53723025 3.5220959 0.0009765625
1.2821862 -0.41029954 2.6887565 0.00048828125
1.6393378 -0.50441158 3.3073587 0.00048828125
1.7824805 -0.5092802 3.3495455 0.00048828125
1.881552 -0.51904881 3.42273 0.00048828125
1.7379045 -0.44849148 2.9798338 0.00073242188
1.8363558 -0.45908895 3.0653081 0.0009765625
2.1272728 -0.51570249 3.4628952 0.00073242188
2.0276453 -0.4770931 3.2241325 0.00024414062
1.7288587 -0.39516777 2.6893466 0.0009765625
1.664126 -0.36980575 2.5360425 0.00073242188
2.1133196 -0.45693395 3.1592956 0.0009765625
2.0263937 -0.42660919 2.975307 0.0014648438
2.076046 -0.42585558 2.9971893 0.00024414062
-1.7527155 -0.34080577 2.6666632 0.00073242188
-2.178617 -0.43572342 3.3836734 0.00024414062
-1.8760412 -0.39794815 3.0497847 0.00048828125
-1.7781086 -0.38896123 2.9644401 0.0014648438
-1.5792143 -0.35659677 2.7048161 0.00048828125
-1.6982477 -0.42456192 3.1894207 0.00024414062
-1.8184642 -0.4895865 3.6679187 0
-1.3979615 -0.51503843 3.8805068 0.0012207031
-1.1616142 -0.47831172 3.6163416 0.00048828125
1.0506909 -0.52534544 3.992522 0.0009765625
1.395902 -0.48856571 3.6750746 0.00048828125
1.4740013 -0.49133378 3.6904488 0.0009765625
1.4951628 -0.47573361 3.5687802 0.0017089844
1.1984619 -0.36474922 2.7335701 0.00024414062
1.277301 -0.37254611 2.7903407 0.00073242188
1.4866309 -0.4162567 3.1172948 0.00073242188
1.6884457 -0.45458153 3.4056659 0.00073242188
1.7004662 -0.44086155 3.3062384 0.00073242188
1.4386942 -0.35967356 2.7019625 0.00048828125
1.4990479 -0.36183915 2.7248676 0.00073242188
1.9036127 -0.42984799 3.2604327 0
1.6004018 -0.35008785 2.6681695 0.00073242188
1.6050104 -0.34045675 2.6091838 0
2.0334406 -0.41864955 3.2285979 0.00024414062
2.178617 -0.43572342 3.3836734 0.00024414062
1.7507201 -0.33121729 2.6127717 0.00048828125
1.8873502 -0.34766978 2.7663047 0.00024414062
1.680552 -0.30163753 2.4218898 0.00024414062
-1.8977209 -0.32532361 2.9434555 0.00073242188
-1.7761042 -0.31343019 2.8164752 0.00024414062
-1.7251152 -0.32345909 2.8731098 0.00024414062
-1.5175346 -0.31397268 2.7567754 0.00024414062
-1.790853 -0.38375425 3.3617904 0.00048828125
-1.3504025 -0.31163135 2.7233953 0.00073242188
-1.7332259 -0.4159742 3.6343315 0.00048828125
-1.6575794 -0.43241203 3.7816813 0.001953125
-1.0177933 -0.38167241 3.3749917 0.00073242188
1.1633148 -0.41058171 3.6241102 0.00048828125
1.1604158 -0.38680524 3.4080896 0.0009765625
1.316553 -0.4157536 3.6566689 0.00073242188
1.4016874 -0.42050621 3.6922214 0.00073242188
1.4384087 -0.37523705 3.2816546 0.0009765625
1.4418126 -0.30895987 2.7065713 0
1.4429018 -0.29853141 2.6211965 0.00024414062
1.8394547 -0.36789092 3.2400956 0.00073242188
1.7968473 -0.34777689 3.0747807 0.0009765625
1.7360533 -0.32551 2.8913271 0.0009765625
1.8212101 -0.33112913 2.9572358 0.0012207031
1.9785477 -0.34915549 3.137502 0.00048828125
2.0960047 -0.34933412 3.1844602 0.00073242188
1.7612406 -0.28560659 2.6246166 0.0009765625
-2.2067022 -0.2903555 3.2253866 0.00073242188
-1.9819993 -0.26783773 2.9499459 0.00048828125
-1.7178012 -0.23858348 2.6067629 0.00073242188
-1.6002127 -0.23532538 2.5348961 0.00024414062
-2.0866792 -0.32604364 3.472302 0.00073242188
-1.6659598 -0.2974928 3.1262097 0.00048828125
-1.6587871 -0.30718282 3.2234714 0.00024414062
-1.8251517 -0.35099071 3.6804569 0
-1.6141243 -0.33627591 3.5270307 0.0009765625
-1.4893006 -0.32376099 3.3985388 0
-1.5155703 -0.36085007 3.7976856 0.0009765625
-1.127943 -0.33174795 3.5159864 0.00048828125
-0.74744904 -0.37372452 4.0053606 0.0012207031
1.1946119 -0.3733162 3.9637642 0.0012207031
1.1390771 -0.33502266 3.5506933 0.00073242188
1.152072 -0.28801799 3.0360906 0.00073242188
1.4548298 -0.33064309 3.4748168 0.0012207031
1.9926599 -0.33210996 3.5077748 0.0009765625
1.7417639 -0.24882342 2.6985259 0.00048828125
1.9193443 -0.25254527 2.8053753 0.00073242188
-2.1949117 -0.23728776 3.2635543 0.00048828125
-1.6693262 -0.19078013 2.5839429 0.00024414062
-1.5154457 -0.1955414 2.589777 0.00048828125
-1.8925683 -0.2523424 3.3299403 0.00024414062
-1.7349383 -0.25702786 3.3708842 0
-1.5505127 -0.23854043 3.1264396 0.00048828125
-1.5590792 -0.28346896 3.7248344 0.0009765625
-1.1388946 -0.25308767 3.3482847 0.00073242188
1.0560063 -0.26400158 3.5056551 0.00024414062
1.2925056 -0.2721065 3.5932498 0.0009765625
1.4879386 -0.2834169 3.7296958 0.0009765625
1.4674736 -0.25521278 3.3494124 0.0009765625
1.7581619 -0.24250509 3.1910965 0.0009765625
1.5196682 -0.2026224 2.6738291 0.00024414062
1.5851276 -0.19814095 2.6358907 0.00024414062
2.0011799 -0.24256727 3.2438452 0.00024414062
2.2331092 -0.25521249 3.4566205 0.00048828125
2.0067976 -0.22297747 3.0423813 0.0009765625
1.975194 -0.21353449 2.936862 0.00073242188
1.9455335 -0.20479302 2.8407032 0.00073242188
2.0284729 -0.20804851 2.9118936 0.00048828125
1.9893504 -0.19893505 2.8106129 0.00073242188
-1.9108899 -0.14699152 2.7408414 0.0009765625
-2.171587 -0.18613604 3.3590276 0.00024414062
-1.6880949 -0.14894955 2.6701033 0.00024414062
-2.1232119 -0.19905108 3.5288079 0.00024414062
-1.8359118 -0.17766887 3.1360114 0.00048828125
-1.8411061 -0.19045928 3.3406799 0.00024414062
-1.3988961 -0.17486201 3.0574374 0
-1.0367867 -0.20735732 3.6794202 0.00048828125
-0.93039811 -0.21470724 3.8226938 0.00048828125
1.1967103 -0.22438318 3.9743462 0.0012207031
1.0661256 -0.18813984 3.3261983 0.00048828125
1.2306381 -0.20510635 3.6193254 0.00048828125
1.3554579 -0.20331869 3.5745564 0.0009765625
1.2191336 -0.16624551 2.9133105 0.00024414062
1.639281 -0.17563726 3.0746713 0.00024414062
1.9788091 -0.20470442 3.5905416 0.0009765625
2.0354018 -0.20354018 3.5799227 0
1.9272201 -0.18650515 3.2919796 0.00024414062
1.9405192 -0.18192366 3.2251704 0.0009765625
1.8651352 -0.16955775 3.0215278 0.00048828125
1.6311196 -0.14392233 2.5799842 0.00073242188
1.8701789 -0.15584823 2.8331504 0.00073242188
1.9012716 -0.15415716 2.8247468 0.00048828125
2.157093 -0.17029683 3.1470687 0.00024414062
1.9649059 -0.15114661 2.8183179 0.00048828125
2.1087344 -0.1581551 2.9767878 0.0009765625
-1.9952252 -0.10231923 2.8601227 0.00024414062
-1.7878746 -0.094098665 2.6069047 0.00048828125
-1.4723451 -0.10516752 2.7611802 0.00073242188
-1.3754885 -0.10188803 2.671967 0.00024414062
-1.3896906 -0.12633553 3.3214271 0.00048828125
-1.1194161 -0.13169602 3.4934263 0.00024414062
-1.040103 -0.1386804 3.692282 0.00024414062
-1.0269344 -0.14670491 3.9127173 0.00024414062
-0.95107257 -0.14631885 3.9088321 0.0012207031
-0.89761341 -0.14960223 4.0026855 0.0017089844
1.1218961 -0.13198778 3.5011659 0.00073242188
1.3778061 -0.14503221 3.832629 0.00048828125
1.3562568 -0.13562568 3.577461 0.00048828125
1.4104733 -0.12822485 3.3710988 0.0014648438
1.3988643 -0.12164038 3.1937559 0.00024414062
1.5536534 -0.12429228 3.2581894 0.00073242188
1.7170985 -0.12264991 3.2201815 0.0009765625
1.8858217 -0.13005668 3.4211335 0.00073242188
2.0000124 -0.13333414 3.5167661 0.00048828125
1.8539923 -0.11961242 3.1658912 0.00024414062
1.549862 -0.096866377 2.5749373 0.00024414062
1.593549 -0.096578732 2.5804741 0.00048828125
1.8775624 -0.10430901 2.842828 0.00048828125
2.330961 -0.12268215 3.3987803 0.00024414062
2.2655573 -0.11618242 3.2476394 0.00048828125
2.1964638 -0.10982317 3.0987773 0
-2.0160193 -0.053053137 2.9385526 0.00024414062
-1.7610534 -0.047596037 2.6141031 0.00048828125
-1.8556648 -0.051546246 2.8087826 0
-1.9911777 -0.058564048 3.1471713 0
-1.99666 -0.060504843 3.2324326 0
-1.8385524 -0.059308134 3.1389349 0.00024414062
-1.3263959 -0.053055838 2.7816663 0
-1.4612103 -0.073060513 3.8548234 0.00048828125
1.1907264 -0.0744204 3.9562981 0.0012207031
1.2249125 -0.072053671 3.8232942 0.00073242188
1.3567351 -0.067836761 3.5792072 0.00073242188
1.4827521 -0.070607238 3.7188659 0.0014648438
1.3827604 -0.062852748 3.3051944 0.00073242188
1.5356014 -0.066765279 3.5062127 0.00048828125
1.7537998 -0.070151992 3.6780014 0.00048828125
1.7270203 -0.061679292 3.2385275 0.00024414062
1.7694951 -0.061017081 3.2097256 0.0009765625
1.6533107 -0.05511035 2.9066894 0.00073242188
1.701393 -0.05488364 2.9047647 0
1.5758802 -0.049246255 2.6175864 0.00073242188
2.1786656 -0.064078398 3.4435067 0.00048828125
1.8165567 -0.051901616 2.8076227 0.00073242188
1.7636682 -0.04522226 2.5272989 0.00048828125
2.0889091 -0.052222732 2.9459832 0.00073242188
-2.0163999 0 2.9387705 0.00024414062
-1.7670683 0 2.6227415 0.00024414062
-2.0797734 0 3.2141252 0.00048828125
-1.6031015 0 3.3619888 0
-1.2468823 0 3.1274099 0.00024414062
1.2609959 0 3.7103708 0.00073242188
1.2350582 0 3.4362295 0.0009765625
1.4152631 0 3.7337797 0.0012207031
1.4870727 0 3.729852 0.00073242188
1.5358011 0 3.5067606 0.00073242188
1.5498915 0 3.3879662 0.00048828125
1.5668671 0 3.1591897 0.0012207031
1.414941 0 2.6532431 0.00024414062
2.0386007 0 3.5838869 0.0017089844
1.9067031 0 3.2550852 0.0009765625
1.9363922 0 3.2161725 0.0014648438
2.0595405 0 3.3339546 0.00073242188
1.6744219 0 2.5876865 0.00024414062
2.2073848 0 3.3408017 0.00024414062
2.2291975 0 3.248909 0.00048828125
2.2672486 0 3.2485375 0.00048828125
-2.0177436 0.054533608 2.9951332 0.00073242188
-1.9202316 0.06194295 3.2783847 0
-1.7662382 0.063079931 3.3120694 0.00073242188
-1.6155608 0.064622432 3.3880918 0.00073242188
-1.5910572 0.072320782 3.8030834 0.00024414062
-1.3592836 0.064727783 3.4091966 0.00024414062
-1.1678532 0.068697244 3.6451962 0.00048828125
-1.0269833 0.064186454 3.4122462 0.00048828125
-1.0376856 0.069179043 3.6843562 0.001953125
-1.053064 0.075218856 4.0130014 0.00390625
-0.90346199 0.075288497 4.0295105 0.0051269531
-0.83104175 0.075549245 4.0492139 0.0034179688
1.3253351 0.069754481 3.6872184 0.00073242188
1.2893666 0.064468339 3.4014823 0.00048828125
1.5726203 0.071482733 3.7590139 0.00048828125
1.514248 0.058240309 3.0531054 0.00073242188
1.8650786 0.069076985 3.6228633 0.00048828125
2.0707674 0.064711481 3.4396095 0.0021972656
2.1986408 0.062818304 3.3981621 0.0017089844
2.231056 0.061973773 3.3769841 0.00024414062
2.138706 0.05780286 3.1746893 0.0009765625
2.1533968 0.055215307 3.0857718 0.00073242188
-2.3579936 0.12092274 3.3801453 0
-1.979701 0.10701086 2.9396393 0.00073242188
-0.99134201 0.11014912 2.9163191 0.00048828125
-1.166032 0.14575399 3.8735769 0.00048828125
-1.1172293 0.1489639 3.9660742 0.0021972656
-1.0545291 0.15064701 4.0178556 0.00390625
-0.90783888 0.15130648 4.0482831 0.0051269531
1.2788267 0.13461334 3.5572994 0.0012207031
1.290091 0.11728101 3.0833793 0.0009765625
1.6532034 0.14375682 3.7744389 0.00048828125
1.412953 0.11774608 3.0884137 0.00073242188
1.7243812 0.1326447 3.4768214 0.0009765625
1.5959014 0.11821491 3.1001318 0.00024414062
1.9035317 0.13596657 3.5698113 0.0009765625
2.1262136 0.13288835 3.5324864 0.0029296875
2.1453843 0.1261991 3.3918405 0.0029296875
2.2211137 0.12692077 3.4339206 0.0017089844
2.2538588 0.12521437 3.4125807 0.0012207031
2.1119461 0.11415924 3.1360087 0.0012207031
2.0959108 0.1103111 3.0560532 0.00048828125
2.01441 0.10330307 2.887624 0.0009765625
2.0166569 0.10083283 2.8451054 0.00024414062
-2.2335546 0.18109901 3.3184245 0.00024414062
-2.060775 0.17663786 3.1876228 0
-1.9318367 0.18695194 3.2998655 0.00073242188
-1.7505726 0.18756136 3.2834122 0.00048828125
-1.6290426 0.18100473 3.1647587 0.00024414062
-1.3594067 0.16312881 2.8507373 0.00024414062
-1.1405858 0.17108788 3.0079045 0.00048828125
-1.2306381 0.20510635 3.6193254 0.00048828125
-1.041073 0.22308709 3.9653909 0.0043945312
-0.965204 0.22273938 3.9656997 0.0043945312
1.3457583 0.21248816 3.7425637 0.0017089844
1.3554579 0.20331869 3.5745564 0.00073242188
1.3609731 0.19442473 3.4123576 0.0012207031
1.5523272 0.20247744 3.5436821 0.0014648438
1.445357 0.18066962 3.1589825 0.00073242188
1.6198395 0.19438073 3.3968766 0.0009765625
1.7544965 0.19494405 3.4084792 0.00024414062
1.8413253 0.19728488 3.45363 0.0012207031
2.1755464 0.19777697 3.5243955 0.0024414062
2.2068408 0.19472125 3.4906173 0.0026855469
2.2896912 0.18565063 3.4018276 0.0009765625
2.0600612 0.16263641 3.0055048 0.0012207031
2.1873591 0.16825838 3.1373885 0.00073242188
-2.070534 0.21795096 3.0232182 0.00024414062
-1.9434822 0.21010618 2.8897104 0.00024414062
-2.2660275 0.25178081 3.4353838 0.00024414062
-1.8275349 0.22151938 2.9623723 0.00073242188
-1.9641572 0.24551965 3.266175 0.00024414062
-1.8369341 0.24492452 3.2320528 0.00048828125
-1.6908453 0.24154933 3.1720302 0.00048828125
-1.4267783 0.24813533 3.2565279 0.00048828125
-1.3801492 0.25093624 3.2973487 0.00073242188
-1.3000677 0.24763195 3.2587745 0.00073242188
-1.4320136 0.28640276 3.7752857 0.00048828125
-1.0157974 0.22573273 2.9863858 0.00024414062
-1.0253611 0.24126144 3.1977861 0.00024414062
-0.98198748 0.30214998 4.0329366 0.0009765625
1.3272954 0.29495451 3.9021723 0.0014648438
1.2925056 0.2721065 3.5932498 0.0014648438
1.3442659 0.26885322 3.5439525 0
1.4150448 0.26953235 3.5469785 0.0012207031
1.5880526 0.28873685 3.7940557 0.00048828125
1.5325861 0.26653671 3.4980273 0.00073242188
1.3481835 0.22469728 2.9462848 0.00048828125
1.5470608 0.24752975 3.2441349 0.0009765625
1.6126953 0.24810699 3.2518241 0.0009765625
1.641704 0.23452914 3.0798411 0.00048828125
1.821303 0.25121421 3.3056989 0.0012207031
1.9847908 0.26463875 3.4922042 0.0009765625
2.0687523 0.2669358 3.5353341 0.0017089844
2.1263537 0.25773984 3.4467473 0.0024414062
2.1795304 0.25641534 3.4496694 0.0021972656
2.1626363 0.24715845 3.3475356 0.0024414062
2.2792878 0.24640949 3.3890107 0.0017089844
2.0808551 0.21903738 3.0382881 0.0012207031
2.1845093 0.22405224 3.1358852 0.00048828125
1.858017 0.1858017 2.625061 0.0009765625
-2.1557562 0.2836521 3.1509225 0.00073242188
-1.9961072 0.27723709 3.0290923 0.00048828125
-2.0374627 0.29106611 3.1566536 0.0009765625
-2.1216486 0.33150756 3.5304918 0.00073242188
-1.9926599 0.33210996 3.5077748 0.00024414062
-1.5614489 0.26921535 2.8351514 0.00048828125
-1.5899569 0.31799138 3.3339751 0.00048828125
-1.4134814 0.33654317 3.5418732 0.00048828125
-1.2561882 0.33057582 3.4907901 0
-1.2046016 0.33461156 3.5398233 0.00073242188
-1.2182527 0.3583096 3.7974966 0.00024414062
-1.1002465 0.34382704 3.6506569 0.00073242188
-1.0390188 0.37107813 3.9537728 0.0009765625
1.2911584 0.33977854 3.5879681 0.00073242188
1.3894604 0.3308239 3.4816821 0.00073242188
1.4262807 0.32415468 3.4066284 0.0009765625
1.4710096 0.31978464 3.3567994 0.0012207031
1.4935918 0.31116495 3.2636542 0.0009765625
1.5450526 0.30901054 3.2398155 0.00048828125
1.548409 0.29777095 3.1223993 0.00048828125
1.7686315 0.32752436 3.4369285 0.0012207031
1.7116939 0.30565959 3.2120304 0.00048828125
1.8405061 0.31732863 3.3418403 0.00073242188
1.9926599 0.33210996 3.5077748 0.0012207031
2.0367455 0.32850733 3.4827032 0.0009765625
2.1498837 0.32573998 3.4875824 0.0021972656
2.1860917 0.32148406 3.4629869 0.001953125
2.2265337 0.31807625 3.4495828 0.0029296875
2.2929235 0.30985451 3.4127157 0.0026855469
2.2484891 0.29585382 3.286464 0.001953125
2.2931986 0.29399982 3.295409 0.0012207031
2.374155 0.29676938 3.3578942 0
-1.7320111 0.27347544 2.5347893 0.00024414062
-1.8263102 0.32229003 2.8960898 0.00048828125
-1.9544048 0.35534635 3.1735139 0.00073242188
-1.6048502 0.33203796 2.9153941 0.00024414062
-1.5832543 0.3518343 3.0773993 0.00073242188
-1.2758554 0.31896386 2.7875192 0
-1.4306972 0.37322536 3.2640612 0.00073242188
-1.4449158 0.41283303 3.6192193 0.00073242188
-1.2413203 0.37239608 3.2697942 0.00073242188
-1.3487391 0.42591763 3.7460644 0.00024414062
-0.93931901 0.37572759 3.3282692 0.00073242188
-0.88537896 0.37944815 3.3669276 0.0009765625
-0.91788453 0.423639 3.7651088 0.00073242188
-0.79285038 0.39642519 3.5285888 0.0009765625
1.3304712 0.44349036 3.9075348 0.0014648438
1.2983636 0.38950908 3.4200535 0.0012207031
1.1364421 0.3246977 2.8465557 0.00048828125
1.4383266 0.39227092 3.4343119 0.00073242188
1.5171478 0.3957777 3.4612939 0
1.4677387 0.36693469 3.2067504 0.00073242188
1.7332259 0.4159742 3.6343315 0.00048828125
1.6918216 0.39042038 3.4119449 0.0009765625
1.4897952 0.3310656 2.895741 0.00073242188
1.5644999 0.33524999 2.9368801 0.00024414062
1.5707045 0.32497332 2.8533645 0.00073242188
2.0167575 0.40335149 3.5524044 0.0009765625
1.9576447 0.37889895 3.3499386 0.00073242188
1.9824239 0.37170449 3.3016474 0.0017089844
2.1406651 0.38921183 3.4759583 0.0014648438
2.1955671 0.38745305 3.4816427 0.0021972656
2.250129 0.35528356 3.2930524 0.0021972656
2.3335962 0.35901481 3.3578289 0.0009765625
2.1514881 0.32272321 3.046983 0.00073242188
-2.1193223 0.40095285 3.1628733 0.00048828125
-2.0752773 0.40352613 3.1574235 0
-1.872232 0.37444639 2.9078178 0.00073242188
-1.8880409 0.38871434 2.9977396 0.00048828125
-1.6398162 0.37028104 2.8086126 0.00073242188
-1.7248783 0.41634995 3.1353669 0.0009765625
-1.399895 0.36293569 2.7218339 0
-1.5921983 0.44581556 3.3386574 0.00048828125
-1.4557381 0.44305065 3.3203909 0.00048828125
-1.2869707 0.40949067 3.0718498 0.00073242188
-1.0996714 0.38488495 2.8951705 0.0009765625
-1.2875332 0.47435433 3.573976 0.0009765625
-1.2250446 0.47640616 3.595603 0.00073242188
-1.130461 0.46548393 3.5193553 0.0012207031
-1.0786834 0.47192395 3.574337 0.00073242188
-1.1142318 0.51997483 3.9450951 0.00073242188
-1.0163009 0.50815046 3.8618433 0.0009765625
-0.84726804 0.49423972 3.7677963 0.0009765625
1.328487 0.51663381 3.899215 0.0017089844
1.1877031 0.43757483 3.2968647 0.0014648438
1.3127998 0.45947993 3.4562864 0.0012207031
1.3542552 0.45141837 3.390641 0.0012207031
1.3852187 0.4407514 3.3063562 0.0012207031
1.5258307 0.46438318 3.4802651 0.00073242188
1.514616 0.44176298 3.3087697 0.0009765625
1.5765587 0.44143647 3.3058629 0.0012207031
1.6884457 0.45458153 3.4056659 0.0009765625
1.7018512 0.44122064 3.3089314 0.0021972656
1.8894725 0.47236812 3.5485537 0.00024414062
1.6270509 0.39273646 2.9575429 0.00073242188
1.7477793 0.39465979 2.9935272 0.00024414062
1.9750412 0.43204021 3.2927637 0.0017089844
2.1518362 0.4564501 3.4981306 0.0009765625
2.1583767 0.4443717 3.4269655 0.0012207031
2.1436017 0.42872036 3.3292899 0.001953125
2.2645948 0.44033787 3.4454603 0.001953125
2.2825205 0.43182814 3.4064298 0.0017089844
2.238379 0.41233301 3.2808106 0.0012207031
2.2167144 0.39787182 3.1945682 0.00073242188
2.1685364 0.37949383 3.0759277 0.0012207031
-2.1065168 0.43210602 3.0411801 0
-1.9514452 0.43365446 2.973902 0.00073242188
-2.1264501 0.5003413 3.3812404 0.0009765625
-2.1457481 0.5201813 3.49297 0.00073242188
-1.8897263 0.47243157 3.1543958 0.00048828125
-1.824749 0.47090295 3.1287384 0.00048828125
-1.5964701 0.45613438 3.0000045 0.0009765625
-1.3375453 0.39630967 2.601645 0.00073242188
-1.4260961 0.45635074 2.9905372 0.0009765625
-1.3949353 0.48519486 3.1809504 0.0012207031
-1.3007796 0.47301075 3.1036804 0.00073242188
-1.0576102 0.42304403 2.7828496 0.00024414062
-1.1144598 0.4953154 3.2686901 0.00024414062
-1.1596402 0.54571295 3.6074214 0.00073242188
-0.88198352 0.44099176 2.9201779 0.00024414062
-0.96982169 0.51723826 3.4308875 0.00048828125
-0.95084161 0.54333812 3.6099558 0.0009765625
-0.88790792 0.54640484 3.6360638 0.0012207031
1.2375448 0.58237398 3.8497682 0.0021972656
1.230637 0.51816297 3.4138269 0.0009765625
1.1587945 0.46351779 3.0490923 0.0012207031
1.3517523 0.4915463 3.225302 0.0014648438
1.5227033 0.52963591 3.4723072 0.00048828125
1.5361066 0.51203555 3.3553948 0.00048828125
1.4833133 0.47466025 3.110522 0.00073242188
1.6008703 0.49257544 3.2297506 0.0009765625
1.5203984 0.45048839 2.9573107 0.00073242188
1.7346762 0.49562186 3.2597144 0.00048828125
1.8281538 0.5043183 3.3255937 0.00048828125
1.6662937 0.44434497 2.9400365 0.00073242188
1.6764534 0.4326331 2.8744688 0.00073242188
1.8897263 0.47243157 3.1543958 0.00048828125
1.7804694 0.43162891 2.8983488 0.0014648438
1.9777062 0.4653427 3.1447246 0.00073242188
2.1374784 0.48856655 3.3249795 0.0012207031
2.2132988 0.49184412 3.3729532 0.001953125
2.072355 0.44807678 3.0980558 0.00073242188
2.1933303 0.44991389 3.1665127 0.0009765625
2.0272076 0.40544155 2.8806581 0.00073242188
-1.9859828 0.4703643 2.921792 0.00048828125
-2.1563327 0.52451336 3.2298727 0.00073242188
-2.1217306 0.53043264 3.2394896 0.00073242188
-2.1533997 0.55373144 3.3557668 0.0009765625
-2.1313515 0.56418139 3.3947771 0.00024414062
-1.6502581 0.46413508 2.7586067 0.00048828125
-1.8924557 0.54942262 3.2489502 0
-1.7917385 0.55605686 3.2623041 0.00073242188
-1.5965889 0.51318926 3.0023584 0.0014648438
-1.4395654 0.4983111 2.9052336 0.0009765625
-1.7536225 0.63130414 3.6778255 0.00048828125
-1.4969299 0.58575517 3.4127979 0.0009765625
-1.177098 0.48154011 2.8075554 0
-1.2838948 0.55024064 3.2113748 0.0009765625
-1.2241457 0.55086559 3.2191021 0.00073242188
-1.116344 0.62794346 3.6928113 0.00073242188
-1.0174356 0.61046124 3.5959473 0.0014648438
-0.97153813 0.67260337 3.9745693 0.0021972656
1.2465103 0.65991735 3.8743846 0.0017089844
1.2561365 0.62806827 3.681356 0.00048828125
1.2189294 0.57738763 3.3789849 0.00048828125
1.3012122 0.58554554 3.421762 0.0009765625
1.4035262 0.60151124 3.5106058 0.00048828125
1.4298325 0.58493149 3.4103653 0.00073242188
1.1843132 0.46342689 2.700074 0.0009765625
1.3977044 0.52413911 3.0529165 0.00073242188
1.3454815 0.48437339 2.8218424 0.0009765625
1.6349573 0.56594676 3.2995603 0.00048828125
1.6750928 0.55836433 3.2598717 0.00048828125
1.6956973 0.54504555 3.1887302 0.00048828125
1.6610607 0.51550162 3.0243726 0.00024414062
1.7325418 0.51976252 3.0602705 0.00048828125
1.5750214 0.45726424 2.7039819 0.0014648438
1.8925024 0.53226632 3.1635475 0
2.050458 0.55921584 3.3430986 0.00048828125
1.7609611 0.46613681 2.804826 0.00048828125
1.9271841 0.49556169 3.0032418 0.00048828125
2.2424741 0.54546666 3.3588996 0.00048828125
1.6512094 0.39107588 2.429271 0.00024414062
1.8855798 0.43513381 2.7277396 0.0012207031
1.9827285 0.44611394 2.8232317 0.0009765625
-1.7887484 0.47072318 2.637517 0.00048828125
-1.9277003 0.53547227 2.9494882 0.00048828125
-1.6428044 0.46937263 2.5652857 0
-2.0000901 0.60608792 3.2668362 0.0009765625
-1.8489827 0.59644598 3.1789927 0.00048828125
-1.6989307 0.56631023 3.0047536 0.00048828125
-1.4617654 0.60906893 3.1928852 0.00048828125
-1.3279823 0.57738364 3.0270991 0.00073242188
-1.174073 0.53366947 2.7993855 0
-1.1325945 0.56629723 2.9765003 0.0009765625
-1.162763 0.6119805 3.2209206 0.00073242188
-0.99268961 0.55149418 2.906862 0.0009765625
-1.2259868 0.72116864 3.8071363 0.00073242188
-0.99139225 0.61962014 3.2762904 0.00073242188
-0.96594638 0.64396417 3.4104743 0.00048828125
1.2523588 0.73668152 3.8890307 0.0014648438
1.2322931 0.68460721 3.6084855 0.0014648438
1.2161101 0.64005792 3.368695 0.00048828125
1.4344296 0.71721482 3.7697346 0.00073242188
1.3758185 0.62537199 3.2804146 0.00073242188
1.5150504 0.65871757 3.4535155 0.0009765625
1.6051902 0.66882926 3.5061631 0.0014648438
1.4790887 0.59163547 3.1027195 0.00073242188
1.6504658 0.63479453 3.3322814 0.0009765625
1.6908869 0.62625444 3.292732 0.00073242188
1.7155799 0.61270702 3.2289078 0.0014648438
1.6506642 0.56919456 3.0086863 0.0014648438
1.786815 0.59560496 3.1601868 0.00073242188
1.8217398 0.58765793 3.1321533 0.00024414062
1.644377 0.5138678 2.7532973 0.00048828125
1.7248484 0.5226813 2.8172717 0.00073242188
1.835126 0.53974301 2.9285846 0.00048828125
1.7376233 0.49646378 2.7133482 0.00073242188
1.8089373 0.50248253 2.7677741 0.00073242188
1.9947988 0.5391348 2.9944639 0.00048828125
1.9688085 0.51810741 2.9030163 0.00073242188
1.790584 0.44764599 2.5554905 0.00048828125
-2.2655168 0.63899195 3.2931137 0.00048828125
-1.9926367 0.5768159 2.9454646 0.00048828125
-1.9541924 0.58097607 2.9406607 0.0009765625
-1.9616493 0.63465124 3.1372805 0.00073242188
-1.8880458 0.64901578 3.1672099 0.00073242188
-1.523669 0.54065669 2.6241059 0.00048828125
-1.7482892 0.66314417 3.1906805 0.00073242188
-1.5252457 0.62139642 2.9725559 0.0017089844
-1.7179959 0.72684437 3.4705789 0.00048828125
-1.4364452 0.63203597 3.0142584 0.00073242188
-1.6857746 0.77264673 3.6825695 0.00024414062
-1.2160926 0.58160949 2.7717609 0.00048828125
-1.4135404 0.77744728 3.7125397 0.00024414062
-1.2763273 0.73892635 3.5328505 0.00073242188
-1.088426 0.7482928 3.5932498 0.00073242188
-1.0482266 0.76869953 3.6969287 0.0012207031
-1.0233001 0.80402148 3.8726985 0.0026855469
1.1951346 0.7733224 3.7077866 0.0017089844
1.2843379 0.78487307 3.7576489 0.0012207031
1.2451477 0.72087502 3.4465461 0.0012207031
1.2846818 0.70657504 3.3741038 0.0012207031
1.2430494 0.65112102 3.1062298 0.00073242188
1.4011841 0.70059204 3.3399079 0.0012207031
1.4009932 0.67004025 3.193193 0.0009765625
1.5232652 0.69816327 3.3275683 0.0012207031
1.3367578 0.58817345 2.8050725 0.0014648438
1.6803708 0.68459558 3.2748799 0.00073242188
1.6774677 0.65900517 3.1604619 0.0009765625
1.606523 0.60937083 2.931953 0.00073242188
1.6181555 0.59332359 2.8661575 0.0014648438
1.5688968 0.55670524 2.7019982 0.0009765625
1.7542472 0.60302252 2.9427619 0.00073242188
1.8453895 0.61512983 3.0202799 0.0012207031
2.1592484 0.69858032 3.4533019 0.00073242188
1.5477431 0.48643351 2.4223528 0.0009765625
1.590363 0.48594421 2.4391084 0.0012207031
1.9819539 0.57372355 2.9296737 0.00073242188
1.9895812 0.56116396 2.892019 0.00048828125
1.9794192 0.54434031 2.8321741 0.00048828125
-2.2316887 0.68667346 3.2529294 0.00024414062
-2.0116167 0.63524735 2.9816642 0.00048828125
-1.7279601 0.57598668 2.6570826 0.00048828125
-1.5436727 0.52925926 2.4220946 0.00048828125
-1.9273167 0.72274375 3.2399204 0.00024414062
-1.5856779 0.61381084 2.7361579 0.00048828125
-1.6716646 0.69172323 3.0553679 0.0009765625
-1.4032264 0.60138279 2.6470506 0.00073242188
-1.6123151 0.77391124 3.3849015 0.0009765625
-1.6268628 0.81343138 3.5546768 0.00073242188
-1.2661912 0.69064975 3.0174625 0.00024414062
-1.0276334 0.6490317 2.8423612 0.00073242188
-1.1639769 0.77598459 3.4025342 0.0012207031
-0.83705175 0.62778884 2.7604115 0.00073242188
-1.0525287 0.8420229 3.707828 0.0009765625
1.1982704 0.84583807 3.7138638 0.0014648438
1.227338 0.81822526 3.5877512 0.0012207031
1.1117771 0.70217502 3.0750966 0.0009765625
1.3165787 0.78994733 3.4558372 0.0012207031
1.1703609 0.63837868 2.7890892 0.00073242188
1.2871559 0.67155957 2.9337089 0.00073242188
1.4172924 0.70864618 3.0967677 0.00073242188
1.3785594 0.66170847 2.8941538 0.00073242188
1.5110365 0.69740152 3.0547123 0.0009765625
1.587454 0.70553511 3.0968413 0.0009765625
1.6627719 0.71261656 3.1366582 0.0009765625
1.4740129 0.60993636 2.6941121 0.00073242188
1.6274809 0.65099233 2.8876188 0.0012207031
1.517127 0.58727497 2.6178701 0.00024414062
1.8339112 0.68771672 3.082901 0.00048828125
1.9839387 0.72143227 3.2544324 0.0012207031
1.7414004 0.59705162 2.7323384 0.0012207031
1.9021264 0.61690581 2.8700101 0.0014648438
1.9371538 0.61173278 2.8712938 0.00073242188
2.0974135 0.64535797 3.0572088 0.00073242188
1.6945889 0.50837666 2.4313946 0.00048828125
-2.1860743 0.72869146 3.1960628 0.00048828125
-1.9070857 0.65242404 2.8351781 0.00073242188
-2.1788383 0.76553774 3.2972007 0.0009765625
-1.6946504 0.62944162 2.6663945 0.00048828125
-1.8600905 0.71121109 2.9900131 0.0012207031
-1.7752984 0.69935995 2.9195573 0.00073242188
-1.7185539 0.69816256 2.8958173 0.00048828125
-1.7779052 0.77042556 3.160691 0.00048828125
-1.5973833 0.71606845 2.9246206 0.00048828125
-1.5094762 0.70082831 2.851645 0.0014648438
-1.5263146 0.73489225 2.9811234 0.0009765625
-1.4075472 0.73192453 2.956913 0.00073242188
-1.4410889 0.78058988 3.149946 0.0009765625
-1.4997983 0.8477121 3.4187782 0.0009765625
-1.31227 0.77543235 3.1269026 0.0009765625
-1.152667 0.78866696 3.1859426 0.0009765625
-0.96380723 0.69608289 2.8149827 0.00073242188
-1.0621933 0.92056745 3.7374294 0.00073242188
1.1000741 0.79449785 3.212976 0.00073242188
1.2591085 0.86149538 3.4801443 0
1.2349105 0.76446837 3.0835655 0.0014648438
1.304984 0.77112693 3.1095412 0.0012207031
1.441256 0.814623 3.2853315 0.00073242188
1.2438829 0.67376995 2.7188911 0.0009765625
1.3410287 0.69733495 2.817174 0.0012207031
1.5997139 0.79985696 3.2369528 0.00073242188
1.4727618 0.68378228 2.7822852 0.0009765625
1.5778508 0.70731252 2.8888588 0.00024414062
1.6370182 0.70937455 2.9102275 0.0012207031
1.6698792 0.7002719 2.8877177 0.00048828125
1.7185539 0.69816256 2.8958173 0.00048828125
1.4757071 0.58133912 2.4268661 0.00048828125
1.8064036 0.69068378 2.9037139 0.00024414062
1.7149714 0.63698941 2.6983678 0.00073242188
1.660682 0.59969068 2.5609732 0.0017089844
1.764529 0.61996967 2.6702332 0.0014648438
1.6184034 0.55366439 2.4060073 0.00073242188
1.8911009 0.63036698 2.7648087 0.00048828125
-1.9032279 0.70118922 2.8386178 0.00024414062
-1.8520578 0.70077866 2.8116553 0.00048828125
-1.6026047 0.62323511 2.4791591 0.0009765625
-1.7168623 0.68674487 2.7095776 0.0009765625
-1.5923959 0.6556924 2.5672226 0.00073242188
-1.9741488 0.83751768 3.255661 0.00073242188
-1.6762521 0.75701702 2.9058077 0.00048828125
-1.6444762 0.79388517 3.0167861 0.0012207031
-1.3826518 0.71693051 2.7043872 0.0009765625
-1.4191424 0.7947197 2.9837985 0.00073242188
-1.522842 0.8883245 3.3305056 0.0009765625
-1.1604747 0.7063759 2.6460383 0.00073242188
-1.2249495 0.77951336 2.9188919 0.00073242188
-1.4452012 0.96346742 3.6078563 0.00024414062
-1.3137017 0.91959131 3.4449198 0
-1.1710613 0.91082537 3.4175272 0.00048828125
-1.0933195 1.0204315 3.8423314 0
-0.99312651 0.99312651 3.7443593 0.0026855469
-0.94388527 1.0164918 3.8374093 0.0024414062
1.1670105 0.9610675 3.6099286 0.0014648438
1.2755462 0.99209136 3.7224472 0.0014648438
1.2640361 0.93139499 3.4915283 0.00048828125
1.1295446 0.79068124 2.9620044 0.0017089844
1.4297916 0.95319438 3.5693874 0.00048828125
1.2566522 0.79968786 2.9944353 0.0009765625
1.3571922 0.82611692 3.0945804 0.00073242188
1.3515377 0.78839695 2.9558575 0.0009765625
1.2153769 0.68061095 2.5553739 0.0014648438
1.6243421 0.87464571 3.2905326 0.0009765625
1.28447 0.66602147 2.5123491 0.00048828125
1.6695925 0.83479625 3.1595216 0.0014648438
1.584746 0.76504993 2.9072113 0.00073242188
1.4139144 0.65982676 2.5191793 0.0009765625
1.9205301 0.86733609 3.3292675 0.00048828125
1.704698 0.74580532 2.8800313 0.0009765625
1.8145697 0.76981741 2.9924917 0.00073242188
1.5876831 0.65375179 2.5596247 0
1.9594682 0.78378725 3.0924618 0.0012207031
1.8477471 0.71856821 2.8583837 0.0009765625
1.6669881 0.6141535 2.4862719 0.00073242188
1.9756597 0.70921111 2.8978744 0.0009765625
1.9032465 0.66613626 2.7480371 0.00048828125
-2.1993878 0.84591842 3.2373786 0.00024414062
-1.8270129 0.72118932 2.7344687 0
-1.7975103 0.72872043 2.7382772 0.00073242188
-2.1782341 0.90759766 3.3810799 0
-1.5423973 0.66102749 2.4423032 0.00024414062
-1.4961529 0.66006744 2.4197977 0.0012207031
-1.5142974 0.68831706 2.504971 0.00048828125
-1.4947644 0.70067078 2.5327013 0.00073242188
-1.436444 0.69505364 2.4968617 0.00024414062
-1.3947296 0.72141194 2.5643814 0.00024414062
-1.3410765 0.71843392 2.5428641 0.00024414062
-1.6874026 0.93744594 3.3060434 0.00048828125
-1.3549107 0.78167921 2.7485442 0.00024414062
-1.3898743 0.83392465 2.9254289 0.0014648438
-1.2323418 0.88024426 3.0762486 0.0009765625
-1.088919 0.81668931 2.8545709 0.00024414062
-1.1204754 0.93372959 3.2675021 0.0009765625
-0.89635754 0.79090375 2.7702003 0.0009765625
-0.99952257 0.99952257 3.5085335 0.0012207031
1.164238 1.0272689 3.5980871 0.0012207031
1.2590945 0.99402207 3.4760115 0.0009765625
1.2128268 0.90962017 3.1793919 0.0009765625
1.3013752 0.88730115 3.1016104 0.0014648438
1.2326108 0.80387664 2.8118687 0.0009765625
1.2658821 0.79117638 2.7706809 0.0009765625
1.213711 0.7282266 2.5546374 0.00048828125
1.535217 0.88570213 3.11431 0.00073242188
1.3468753 0.74826407 2.6388652 0.00073242188
1.3608592 0.72903174 2.5803747 0.0009765625
1.4216057 0.73531336 2.6137962 0.0009765625
1.5471023 0.77355117 2.7633612 0.00073242188
1.6399608 0.79352945 2.8506196 0.0012207031
1.6535894 0.77511996 2.8018115 0.0009765625
1.7741537 0.76035166 2.8092771 0.00073242188
1.8168061 0.75700265 2.8200672 0.00048828125
1.6559311 0.67132348 2.5225995 0.0009765625
1.8148769 0.71639878 2.716305 0.00048828125
1.6806697 0.64641142 2.4738538 0.0014648438
-1.7219691 0.70644891 2.5441818 0.00048828125
-1.8875618 0.79476291 2.8356795 0.00048828125
-1.6611174 0.73827451 2.5878446 0.00048828125
-1.5781564 0.76516676 2.6193609 0.00048828125
-1.4263302 0.7607094 2.5547485 0.00073242188
-1.346839 0.7430836 2.4826262 0.00048828125
-1.6249952 0.96296006 3.1900735 0.0014648438
-1.4250923 0.87697983 2.8957446 0.00073242188
-1.4261891 0.95079267 3.1247749 0.00048828125
-1.3738376 0.95571303 3.1362867 0.00048828125
-1.2690459 0.9229424 3.0258045 0.00073242188
-1.2303016 0.93737268 3.0715315 0.0009765625
-1.0006883 0.84268486 2.7615373 0.00073242188
-0.96102911 0.90449792 2.9676573 0.0012207031
-0.85010183 0.85010183 2.7916119 0.0009765625
-0.97590923 1.0409698 3.421762 0.00048828125
-0.94393957 1.078788 3.5498242 0.0017089844
1.1611425 1.1611425 3.8130245 0.0017089844
1.2200106 1.1482452 3.7673924 0.00048828125
1.1617872 1.0326997 3.3858917 0.00048828125
1.0719283 0.9026764 2.9581339 0.00073242188
1.1649233 0.93193859 3.0533657 0.00073242188
1.3946812 1.0626143 3.4819164 0.00073242188
1.3871319 1.0088232 3.3073587 0.0012207031
1.4074769 0.93831795 3.0837767 0.00073242188
1.5118203 0.89589345 2.9678967 0.00073242188
1.3284332 0.75910467 2.5246131 0.00073242188
1.394187 0.76920664 2.5699027 0.00073242188
1.4872394 0.79319429 2.6638453 0.0014648438
1.4382913 0.7423439 2.5075896 0.0009765625
1.8017328 0.90086639 3.0625761 0.0009765625
1.4595783 0.70767438 2.4225497 0.0009765625
1.8150939 0.8541618 2.9458585 0.0014648438
1.6670423 0.76207644 2.649133 0.0009765625
1.8271759 0.81207818 2.8465457 0.0014648438
1.8100443 0.78272188 2.7676134 0.00073242188
1.9002186 0.77957696 2.8075428 0.00073242188
1.7946273 0.71785092 2.610112 0.00048828125
-1.8660496 0.83481169 2.8145721 0.0009765625
-1.886901 0.86695451 2.8965902 0.00024414062
-1.6102396 0.78211641 2.5687346 0.00073242188
-1.6062421 0.80312103 2.6167033 0.0009765625
-1.6638675 0.85714376 2.7716722 0.00048828125
-1.7407794 0.92478907 2.9692912 0.00048828125
-1.8978575 1.0754526 3.4098403 0.00048828125
-1.4764203 0.86548775 2.7292507 0.0009765625
-1.5881257 0.96421933 3.0259466 0.0012207031
-1.5913396 1.0019544 3.1311641 0.00048828125
-1.4214698 0.9294225 2.8941033 0.00073242188
-1.3349392 0.90775871 2.8182609 0.00048828125
-1.3583916 0.96219403 2.9801714 0.0012207031
-1.2382708 0.91524357 2.829613 0.00048828125
-1.4672513 1.133785 3.5007308 0.00048828125
-1.070323 0.86645186 2.6730933 0.0014648438
-1.0312971 0.87660259 2.7033 0.00073242188
-0.90974021 0.85919905 2.6501346 0.00073242188
-0.90797997 0.90797997 2.8019552 0
-0.97413999 1.0350238 3.1961529 0.00048828125
-0.94919103 1.0757498 3.3246136 0.0009765625
1.1883738 1.122353 3.461813 0.0009765625
1.1208956 1.0029067 3.0926344 0.0009765625
1.1731265 0.99715751 3.0750718 0.0014648438
1.1202569 0.90687454 2.7978015 0.0009765625
1.2774912 0.98715228 3.0479803 0.00073242188
1.1761423 0.8693226 2.6876414 0.0014648438
1.3025674 0.92265183 2.8576987 0.00073242188
1.2225454 0.83133084 2.5809801 0.00073242188
1.5528083 1.0152977 3.1615076 0.0009765625
1.5590079 0.98159748 3.0675473 0.0009765625
1.4467267 0.87836987 2.756531 0.0009765625
1.5327936 0.89853418 2.8334599 0.0009765625
1.5165703 0.85938978 2.7247899 0.0009765625
1.6322784 0.89512044 2.8552089 0.00048828125
1.4686897 0.78024137 2.5051808 0.0009765625
1.5040553 0.77481627 2.5054569 0.00073242188
1.7827126 0.89135629 2.9041884 0.0009765625
1.6186044 0.7861793 2.5820785 0.0009765625
1.637203 0.77312356 2.5606008 0.0012207031
1.7259817 0.79301858 2.6495624 0.0014648438
1.6964583 0.75894189 2.5587769 0.0014648438
1.8223928 0.79437637 2.7033474 0.00073242188
1.9659315 0.83552086 2.8706977 0.0009765625
-1.6230683 0.74910855 2.4179008 0.0009765625
-1.850372 0.900181 2.8525264 0.00073242188
-1.8734696 0.9367348 2.9424012 0.00073242188
-1.489894 0.7887674 2.436976 0.00024414062
-1.7479537 0.98322403 2.9928257 0.00048828125
-1.3690336 0.84974504 2.5387866 0.0009765625
-1.3166889 0.84644288 2.5160794 0.00024414062
-1.4526154 0.96841025 2.865716 0.00073242188
-1.2700096 0.87923741 2.5917199 0.0009765625
-1.2482204 0.89871877 2.6404231 0.00073242188
-1.2316885 1.0077451 2.9415491 0.00073242188
-1.2065902 1.0342202 3.0153477 0.00048828125
-0.91181016 0.91181016 2.6555319 0.00073242188
-0.90360439 0.95675761 2.7870994 0
-0.93323368 1.0498879 3.0597744 0.00024414062
-0.84074271 1.080955 3.1545687 0.0009765625
1.1676525 1.2363379 3.6015356 0.0012207031
1.0330081 1.0330081 3.0085056 0.00073242188
1.1602967 1.0992286 3.201452 0.0009765625
1.239332 1.1153988 3.2496774 0.0017089844
1.0489742 0.89912075 2.621455 0.00024414062
1.1193765 0.91585344 2.6733224 0.0009765625
1.2986239 1.0163144 2.97141 0.00073242188
1.262754 0.90918291 2.6711667 0.0012207031
1.5122014 1.0469086 3.085963 0.0012207031
1.308718 0.87247866 2.5818355 0.00073242188
1.4101896 0.90655053 2.6947513 0.0009765625
1.3690336 0.84974504 2.5387866 0.0009765625
1.6359284 0.94989389 2.871943 0.0009765625
1.5343916 0.8630954 2.6271672 0.0014648438
1.6176918 0.88237739 2.7053452 0.00073242188
1.8732287 0.99170929 3.0639853 0.00048828125
1.7088492 0.87883675 2.7372973 0.00073242188
1.9857829 0.99289143 3.1187961 0.00048828125
1.8701593 0.90980726 2.8830304 0.00048828125
1.8544508 0.87842417 2.808959 0.0009765625
1.9495475 0.89979124 2.9042602 0.00073242188
1.8781171 0.84515268 2.7540894 0.00048828125
-1.9883366 0.96867681 2.9753408 0.00048828125
-1.5441028 0.77205139 2.3493834 0.0009765625
-1.8078254 0.92834276 2.7994308 0.0012207031
-1.6293598 0.85993987 2.5704069 0.00048828125
-1.4228303 0.8192054 2.3895192 0.00048828125
-1.6220785 0.96310914 2.7886717 0
-1.5341558 0.94028902 2.7038684 0.00048828125
-1.3389465 0.90857077 2.566962 0.00048828125
-1.3995799 1.0636808 2.967557 0.0012207031
-1.4353491 1.1363181 3.1605406 0.00048828125
-1.1703717 0.96682876 2.6824019 0.00024414062
-1.080502 0.93316078 2.5838678 0.00073242188
-1.2802386 1.1583112 3.2025001 0.00048828125
-1.0867651 1.0324268 2.8514442 0.00048828125
-1.0623486 1.0623486 2.9321406 0.0012207031
-1.0745584 1.134256 3.1296015 0.00048828125
-0.88165134 1.0469609 2.8892331 0.0012207031
-0.86838359 1.0999525 3.0366645 0.00024414062
-0.75209033 1.020694 2.8193674 0.0012207031
-0.80503035 1.1765828 3.2520449 0.0012207031
-0.77644765 1.2293754 3.4003651 0.00073242188
-0.77071238 1.3312304 3.6848214 0.00073242188
1.0506359 1.17424 3.2398155 0.00048828125
1.0990605 1.0990605 3.0334673 0.00073242188
1.0397828 0.98779362 2.7281725 0
1.100594 0.95051301 2.6319149 0.0009765625
1.1831099 0.97735167 2.711597 0.0012207031
1.1816764 0.93549377 2.6019704 0.0009765625
1.2836702 0.97558939 2.7217913 0.0009765625
1.2924541 0.9444856 2.6445794 0.00073242188
1.5344243 1.07978 3.0361345 0.0012207031
1.4509113 0.95059717 2.7000875 0.0012207031
1.4056613 0.89025211 2.5436218 0.0009765625
1.7017365 1.0429997 2.9992204 0.00048828125
1.433032 0.85086274 2.4636636 0.00073242188
1.5390713 0.886132 2.5847359 0.0012207031
1.7812631 0.91470271 2.7582991 0.00073242188
1.5354886 0.7677443 2.3362765 0.0012207031
1.7484496 0.85180879 2.6163747 0.00073242188
-1.9382477 0.9939732 2.9140897 0.00048828125
-1.5646151 0.82348156 2.3918705 0.00073242188
-1.8881571 1.0206255 2.9376676 0.0009765625
-1.4607257 0.83470041 2.3611228 0.0017089844
-1.5520478 0.91296929 2.5613689 0.0014648438
-1.6956977 1.059811 2.9280636 0.00073242188
-1.4148446 0.94322968 2.5706694 0.00048828125
-1.4123518 0.9740358 2.6384854 0.0009765625
-1.3851966 0.98942602 2.665252 0.00024414062
-1.4273529 1.0572984 2.8337433 0.00024414062
-1.3371534 1.0285795 2.7444017 0.00048828125
-1.3981947 1.2158213 3.2111213 0.00048828125
-1.0807728 1.0293074 2.7071657 0.0014648438
-0.97907907 0.97907907 2.5714569 0.00048828125
-0.94609261 0.99588692 2.6129992 0.00073242188
-0.9657684 1.073076 2.8137341 0.00024414062
-0.89369839 1.0514098 2.7560205 0.00024414062
-0.94308949 1.178862 3.0899 0.00048828125
-0.81668931 1.088919 2.8545709 0.00048828125
-0.82610691 1.1801527 3.0947139 0.0012207031
-0.78666747 1.2102575 3.1750648 0.00073242188
-0.71536082 1.300656 3.4160588 0
-0.62484896 1.2496979 3.2842529 0.0012207031
1.0891666 1.3614584 3.568501 0.00073242188
1.0885317 1.2806255 3.3568552 0.00073242188
1.2228099 1.3586776 3.5626159 0.00024414062
1.0285174 1.0826498 2.8406467 0.00073242188
1.121187 1.121187 2.9446895 0.00048828125
1.0399017 0.99038255 2.6047902 0.00073242188
1.2160059 1.1054599 2.9128344 0.0012207031
1.3896585 1.1117268 2.954581 0.00073242188
1.29503 0.95928138 2.5710409 0.00048828125
1.3072765 0.93376881 2.5153263 0.0009765625
1.3393621 0.92369807 2.5021296 0.0009765625
1.4521757 0.96811706 2.6384974 0.0012207031
1.5680854 1.011668 2.7754195 0.0009765625
1.6956977 1.059811 2.9280636 0.00073242188
1.4931574 0.90494382 2.5189557 0.0009765625
1.7243855 1.0143445 2.8457806 0.00073242188
1.4831951 0.82399708 2.3508525 0.00048828125
1.7847543 0.96473205 2.7767894 0.00048828125
1.9747518 1.0393429 3.0188575 0.00073242188
-1.7247373 0.92870474 2.6059279 0.00073242188
-1.7961828 0.99262726 2.7595351 0.0009765625
-1.9777236 1.1224918 3.0923476 0.00024414062
-1.6984292 0.99075031 2.7053778 0.00048828125
-1.6453526 1.0162473 2.7286212 0.00048828125
-1.4773319 0.94012034 2.504246 0.00073242188
-1.4544535 0.95448518 2.5233119 0.0009765625
-1.3989139 0.94765127 2.487319 0.0009765625
-1.3606174 0.98527467 2.5525548 0.00073242188
-1.4535218 1.0901414 2.8078785 0.0009765625
-1.2501638 0.97234964 2.4912391 0.00073242188
-1.1629354 1.1100746 2.7915969 0.0014648438
-1.1318403 1.1318403 2.8400607 0.0014648438
-1.0896554 1.346045 3.3616993 0.0012207031
-0.8101052 1.2151577 3.0335672 0.00024414062
-0.84094262 1.4716496 3.6759405 0.00048828125
-0.741808 1.4161791 3.5388601 0.0009765625
-0.66669273 1.4000549 3.5002036 0.00048828125
-0.64287913 1.5000511 3.7520416 0.0012207031
1.094479 1.4365035 3.5863287 0.00073242188
1.1004934 1.3594332 3.3951359 0.00024414062
1.0434736 1.2173856 3.0423267 0.0009765625
0.96606851 1.0677599 2.6709874 0.00048828125
0.97244328 1.0210655 2.5576086 0.00048828125
1.1126602 1.0620847 2.6709125 0.00048828125
1.2249905 1.0718666 2.7114205 0.00024414062
1.3373028 1.1233344 2.8522024 0.00073242188
1.4165366 1.1441256 2.9173648 0.0009765625
1.2187375 0.94790697 2.4286149 0.00073242188
1.3744397 1.0308298 2.6551094 0.00048828125
1.4009064 0.91934496 2.430414 0.0012207031
1.4380151 0.91510051 2.4375994 0.00073242188
1.5353291 0.94829154 2.5461605 0.0009765625
1.6297693 0.95069873 2.5960114 0.00073242188
1.5325264 0.86981231 2.3962419 0.0014648438
1.746805 0.9653396 2.6836746 0.00073242188
1.665041 0.89656055 2.515732 0.0009765625
-1.5421348 0.89281482 2.3815725 0.00073242188
-1.691128 1.0334671 2.7078164 0.00073242188
-1.4920914 0.93788606 2.436348 0.0009765625
-1.8361239 1.2240827 3.1283104 0.00073242188
-1.4887059 1.0234853 2.5956764 0.00024414062
-1.4546641 1.0323422 2.599102 0.00048828125
-1.3158379 0.99822187 2.4798326 0.0017089844
-1.2725158 0.99983394 2.4689434 0.00073242188
-1.1087236 1.0605183 2.5600383 0.0009765625
-1.0753958 1.1266052 2.7043872 0.0009765625
-0.93669552 1.0845948 2.5936551 0.0009765625
-0.96010232 1.3201407 3.1476307 0.00073242188
-0.73950404 1.0846061 2.5849776 0.0012207031
-0.75374836 1.1844616 2.8224144 0.00048828125
-0.73221463 1.3423935 3.1990604 0.00073242188
1.0956721 1.4179287 3.3830516 0.00048828125
1.0781953 1.3177944 3.1471891 0.0009765625
0.9742918 1.1281273 2.6977572 0
1.0897578 1.1416509 2.7405043 0.00048828125
1.2600373 1.2600373 3.032445 0.00073242188
1.1385565 1.0890539 2.628922 0.0009765625
1.309853 1.2006985 2.9086766 0.00073242188
1.3068452 1.1500237 2.7971807 0.0012207031
1.1716707 0.99141365 2.4223752 0.00073242188
1.2698851 1.0347213 2.5409803 0.00073242188
1.3518288 1.0621513 2.6228273 0.0012207031
1.2992272 0.98562068 2.4485281 0.0012207031
1.3097394 0.96047544 2.4015443 0.0012207031
1.4887059 1.0234853 2.5956764 0.00048828125
1.4314551 0.95430344 2.4388528 0.0012207031
1.4999508 0.97055644 2.5003326 0.0012207031
1.5697731 0.98671448 2.5631895 0.0009765625
1.649631 1.0081078 2.641372 0.00073242188
1.6671335 0.99126869 2.6203289 0.00073242188
1.4920654 0.86382729 2.3042488 0.00073242188
-1.5471625 0.93644053 2.4023168 0.00048828125
-1.7651242 1.0972395 2.7894924 0.0009765625
-1.5817289 1.0105492 2.5464988 0.0012207031
-1.4350908 0.94305968 2.3560712 0.0009765625
-1.3680812 0.98330843 2.3980243 0.00073242188
-1.4363689 1.1391891 2.7203195 0.0009765625
-1.2347072 1.0142239 2.4069386 0.0012207031
-1.1486765 1.0567825 2.4684684 0.00048828125
-1.3043362 1.3636243 3.1486027 0.00024414062
-1.0445679 1.1440506 2.633934 0.00073242188
-0.93179882 1.1906317 2.7243111 0.0012207031
-0.85022116 1.222193 2.7901025 0.00024414062
-0.69267541 1.4483213 3.301065 0.00024414062
-0.6742847 1.5508549 3.535131 0.00073242188
-0.55551296 1.5970999 3.641958 0.0014648438
1.0466875 1.6049207 3.6611934 0.00073242188
1.1084851 1.5934474 3.6376264 0.00024414062
0.96838492 1.3101679 2.9939075 0.00048828125
0.9074778 1.159555 2.6532035 0.00048828125
1.022632 1.2379229 2.8372242 0.00073242188
0.95778853 1.101457 2.5296276 0.0012207031
1.0018262 1.0972382 2.5261583 0.00073242188
1.0984454 1.1483749 2.6515927 0.0012207031
1.1654841 1.1654841 2.7001901 0.0012207031
1.1788112 1.129694 2.6273677 0.001953125
1.1654689 1.0722315 2.5045545 0.00024414062
1.1872401 1.0502509 2.465055 0.00073242188
