# .PCD v0.7 - Point Cloud Data file format
VERSION 0.7
FIELDS x y z intensity
SIZE 4 4 4 4
TYPE F F F F
COUNT 1 1 1 1
WIDTH 1032
HEIGHT 1
VIEWPOINT 0 0 0 1 0 0 0
POINTS 1032
DATA ascii
-0.17996499 -0.12497567 0.29311883 0.0087890625
-0.18892762 -0.13494831 0.31380269 0.010742188
-0.181894 -0.13374558 0.30841634 0.010009766
-0.18531793 -0.14039236 0.32112777 0.010986328
-0.18555818 -0.14496732 0.3290028 0.011474609
-0.16265839 -0.13117611 0.29546651 0.012695312
-0.16501661 -0.13751383 0.30751321 0.013183594
-0.15954076 -0.13753514 0.30545333 0.012451172
-0.16594441 -0.14816464 0.32692584 0.013427734
-0.1616977 -0.14972009 0.32834217 0.014160156
-0.14556311 -0.13996452 0.30519876 0.014404297
-0.15507299 -0.15507299 0.33635774 0.014648438
-0.15178718 -0.15811165 0.3412846 0.013183594
-0.14970779 -0.16272585 0.34969252 0.013916016
-0.14619246 -0.1661278 0.3555811 0.014160156
-0.12701531 -0.1512087 0.32249823 0.014648438
-0.12221459 -0.15276824 0.32480362 0.015136719
-0.12257566 -0.16128375 0.34197313 0.015869141
-0.12078588 -0.16775817 0.35486722 0.015380859
-0.10881739 -0.16002558 0.33783847 0.015136719
-0.10435023 -0.16304725 0.34364882 0.015380859
-0.10696541 -0.17827567 0.37523738 0.014892578
-0.095328324 -0.17022915 0.35791299 0.015869141
-0.092238903 -0.1773825 0.37263733 0.017822266
-0.081583314 -0.16996524 0.35682577 0.017333984
-0.075057812 -0.17058593 0.35796008 0.017822266
-0.067768209 -0.16942053 0.35539746 0.018554688
-0.061791845 -0.171644 0.35998437 0.017822266
-0.055483375 -0.17338555 0.36359113 0.017089844
-0.045737147 -0.16334695 0.34251982 0.017089844
-0.044292584 -0.18455245 0.38698056 0.016357422
-0.03226126 -0.16130629 0.33824259 0.016601562
-0.028426809 -0.17766756 0.37256292 0.017578125
-0.021341506 -0.1778459 0.37295085 0.017822266
-0.013887991 -0.17359988 0.36405885 0.018554688
-0.0069819526 -0.1745488 0.36605704 0.018554688
0 -0.17719871 0.37161723 0.017822266
0.0071919356 -0.17979839 0.37706625 0.017333984
0.014972445 -0.18715554 0.39248666 0.017578125
0.020240346 -0.16866955 0.35370767 0.017089844
0.029684013 -0.18552507 0.38903987 0.015869141
0.032871608 -0.16435803 0.34464177 0.016845703
0.043979194 -0.18324666 0.3842425 0.015136719
0.049872957 -0.17811769 0.37349236 0.015380859
0.05478983 -0.17121822 0.35904625 0.015869141
0.062881373 -0.17467047 0.3663317 0.014648438
0.065181643 -0.16295411 0.3418327 0.016357422
0.080351561 -0.18261717 0.38320661 0.015380859
0.081172317 -0.16910899 0.35502818 0.015136719
0.083813235 -0.16117929 0.33859834 0.015136719
0.097705588 -0.17447427 0.36683849 0.014404297
0.10316332 -0.17193887 0.36189958 0.012939453
0.11564588 -0.1806967 0.3808479 0.013671875
0.12160274 -0.17882755 0.3775323 0.012939453
0.12168282 -0.1690039 0.3575024 0.012207031
0.13542886 -0.17819585 0.37783217 0.011230469
0.13040592 -0.16300739 0.34657332 0.011474609
0.14238007 -0.16950008 0.36151016 0.011962891
0.1376764 -0.15645045 0.33486766 0.01171875
0.15963927 -0.17352092 0.3728908 0.011230469
0.14912423 -0.15533775 0.33529714 0.010742188
0.15507299 -0.15507299 0.33635774 0.010986328
0.16739757 -0.1609592 0.35097855 0.010253906
0.18040308 -0.16703989 0.3663252 0.010253906
0.1881272 -0.16797072 0.370628 0.009765625
0.17789888 -0.15336111 0.34060141 0.0092773438
0.19095418 -0.15912847 0.35584861 0.009765625
0.20149536 -0.16249625 0.36601329 0.009765625
0.1981463 -0.15480179 0.35132205 0.0090332031
0.18959451 -0.1436322 0.32853842 0.0083007812
0.22349742 -0.16433634 0.37895837 0.0073242188
0.20959158 -0.14970829 0.34812486 0.0061035156
0.18196461 -0.12636429 0.29637572 0.0036621094
0 0 0 0.0017089844
0 0 0 0.0017089844
0 0 0 0.00048828125
0 0 0 0.00073242188
0 0 0 0.0029296875
0 0 0 0.0056152344
-0.22258711 -0.14438082 0.35376394 0.0078125
-0.17442878 -0.11628585 0.282424 0.0085449219
-0.18757673 -0.12862404 0.30971453 0.0090332031
-0.18495047 -0.13055328 0.31174296 0.010253906
-0.16395439 -0.11923957 0.28243259 0.010742188
-0.18723083 -0.14042312 0.33002448 0.011474609
-0.16091482 -0.12457921 0.29060647 0.012207031
-0.17059931 -0.13647944 0.31610361 0.012207031
-0.18263982 -0.1511502 0.34772411 0.012695312
-0.15673074 -0.13434064 0.30709231 0.013427734
-0.15188558 -0.13500942 0.30679041 0.013671875
-0.15060283 -0.139018 0.31416187 0.013183594
-0.15018624 -0.14417879 0.32417759 0.014160156
-0.14936443 -0.14936443 0.33429229 0.013916016
-0.13624638 -0.14217013 0.31687284 0.013183594
-0.13106342 -0.14297828 0.31749946 0.013671875
-0.14711896 -0.16813596 0.37215576 0.014892578
-0.12595457 -0.15114547 0.33361018 0.015380859
-0.1230247 -0.15539962 0.34217933 0.015625
-0.12213509 -0.16284677 0.35785851 0.014648438
-0.11977281 -0.16909105 0.37096831 0.014404297
-0.11498463 -0.17247695 0.37789634 0.015136719
-0.09966369 -0.15946189 0.34901986 0.015380859
-0.098010443 -0.16801791 0.3674607 0.014892578
-0.082684867 -0.15264899 0.33366162 0.017089844
-0.078692444 -0.15738489 0.3438842 0.018066406
-0.076388396 -0.16666557 0.36408043 0.017822266
-0.069141306 -0.16593915 0.36245531 0.017333984
-0.064125903 -0.17100242 0.37350968 0.017089844
-0.055464692 -0.16639408 0.36346295 0.016601562
-0.048880596 -0.16759062 0.36611179 0.016357422
-0.040396478 -0.16158591 0.35303673 0.017578125
-0.033100788 -0.15888378 0.34717768 0.017333984
-0.027498163 -0.16498896 0.36056253 0.017333984
-0.019323518 -0.15458815 0.33786896 0.018066406
-0.013419461 -0.16103353 0.35198492 0.017822266
-0.0067124665 -0.1610992 0.3521466 0.018066406
0 -0.16154395 0.35312501 0.017578125
0.0072586252 -0.174207 0.38079894 0.016601562
0.01278547 -0.15342565 0.3353557 0.016845703
0.021382581 -0.17106065 0.37387142 0.015625
0.026372921 -0.1582375 0.34580809 0.015625
0.036261603 -0.17405571 0.38032994 0.015625
0.043657653 -0.17463061 0.38153711 0.015136719
0.055496015 -0.19027206 0.41566074 0.015869141
0.055185277 -0.16555583 0.36163193 0.014892578
0.062244456 -0.16598523 0.36255094 0.015380859
0.071399689 -0.17135927 0.37429431 0.015380859
0.07295949 -0.15918432 0.34773767 0.015136719
0.08801128 -0.17602256 0.38460732 0.014648438
0.092964612 -0.17162697 0.37514386 0.014404297
0.10160496 -0.17417994 0.38093725 0.013671875
0.10835232 -0.1733637 0.37944725 0.012695312
0.1128151 -0.16922267 0.37076622 0.012939453
0.11318245 -0.159787 0.35055619 0.012939453
0.12002411 -0.16003214 0.35167331 0.012695312
0.12776858 -0.16139188 0.35537389 0.011962891
0.13950872 -0.16741046 0.36951047 0.012207031
0.14367355 -0.16419834 0.36344019 0.01171875
0.14932635 -0.16290149 0.36174119 0.011474609
0.15035363 -0.15689075 0.34968254 0.011474609
0.16741103 -0.16741103 0.37468237 0.010742188
0.16841465 -0.16167806 0.36352366 0.010498047
0.1620307 -0.14956678 0.33800071 0.010009766
0.16699024 -0.14843577 0.33729997 0.010253906
0.15414725 -0.13212623 0.30203032 0.0087890625
0.19102183 -0.15808703 0.36368245 0.010009766
0.17556386 -0.14045107 0.32530239 0.009765625
0.17797455 -0.13778675 0.32141575 0.0090332031
0.17923352 -0.13442515 0.31592795 0.0078125
0.18888313 -0.13736956 0.32537556 0.0078125
0.18397447 -0.12986435 0.3100979 0.0065917969
0.21735081 -0.14904055 0.35887557 0.0046386719
0.20013936 -0.13342625 0.32405296 0.0031738281
0.20825966 -0.13508734 0.33099294 0.0017089844
0 0 0 0.0017089844
0 0 0 0.00073242188
0 0 0 0.00073242188
0 0 0 0.001953125
-0.19927955 -0.12061658 0.30942619 0.00390625
-0.22386438 -0.13915895 0.35378134 0.0065917969
-0.18653423 -0.11917466 0.30031011 0.0078125
-0.19865099 -0.13054208 0.3261368 0.0095214844
-0.18455215 -0.1248441 0.30930942 0.009765625
-0.18760909 -0.13075787 0.32136133 0.010498047
-0.18222103 -0.13097136 0.31940386 0.012207031
-0.17907928 -0.13286528 0.3216348 0.01171875
-0.15435916 -0.11834201 0.28447238 0.012207031
-0.15979436 -0.12673347 0.30263236 0.012695312
-0.15813984 -0.12990059 0.30827782 0.012207031
-0.15875657 -0.13523708 0.31910056 0.013183594
-0.14989783 -0.13260192 0.31123137 0.014404297
-0.14913204 -0.13720149 0.32047987 0.014404297
-0.15495382 -0.14849742 0.34536546 0.013427734
-0.14156587 -0.14156587 0.32797939 0.013671875
-0.14015023 -0.1465207 0.33831567 0.014892578
-0.1466426 -0.16060856 0.36976719 0.014404297
-0.1386843 -0.15948698 0.36628091 0.015136719
-0.12276685 -0.1486125 0.34060845 0.015380859
-0.11856493 -0.15149964 0.34664968 0.014892578
-0.1106148 -0.14965531 0.34198228 0.014648438
-0.10767828 -0.15478754 0.35335916 0.015380859
-0.10943227 -0.16779615 0.38278159 0.016357422
-0.095599741 -0.15705672 0.35811046 0.016357422
-0.083510675 -0.14774966 0.33679414 0.017089844
-0.088428967 -0.16948885 0.38630205 0.015625
-0.071933895 -0.15040724 0.34281346 0.015625
-0.067515925 -0.15528663 0.35397157 0.015869141
-0.063295022 -0.16175394 0.36877713 0.015625
-0.057238933 -0.16456194 0.37525997 0.016357422
-0.049323764 -0.16206381 0.36965111 0.016601562
-0.044045888 -0.16884257 0.38520554 0.017578125
-0.034991633 -0.16096154 0.36730936 0.017822266
-0.026823528 -0.1542353 0.35203195 0.017822266
-0.020189302 -0.15478465 0.35334536 0.018066406
-0.012759481 -0.14673403 0.33500937 0.018554688
-0.0070381872 -0.16187832 0.36961403 0.017578125
0 -0.1464027 0.33428758 0.017822266
0.0070559159 -0.16228607 0.37054506 0.017333984
0.013078467 -0.15040237 0.34338459 0.017333984
0.019764263 -0.15152602 0.3459065 0.015869141
0.026611205 -0.15301444 0.34924543 0.016601562
0.03357783 -0.15445803 0.35246855 0.016357422
0.044681162 -0.17127779 0.39076138 0.015625
0.051050093 -0.16773604 0.38258889 0.015869141
0.056395113 -0.16213596 0.36972788 0.015380859
0.06424208 -0.1641742 0.374295 0.014648438
0.071538895 -0.16453946 0.37506315 0.014648438
0.074427597 -0.15562135 0.35469764 0.014404297
0.084049232 -0.16109435 0.36716917 0.014404297
0.084861249 -0.15013914 0.34224093 0.014404297
0.097772464 -0.16062619 0.36624929 0.014160156
0.10505498 -0.16108429 0.36747032 0.013671875
0.1011192 -0.14535886 0.33183473 0.012939453
0.11754628 -0.15903321 0.36341199 0.012207031
0.12403716 -0.15849192 0.3626489 0.011474609
0.12531784 -0.15170056 0.34768599 0.011962891
0.11434788 -0.13150008 0.30200565 0.01171875
0.15185502 -0.1663174 0.38291058 0.011962891
0.16471264 -0.17219959 0.3976081 0.010498047
0.14156587 -0.14156587 0.32797939 0.010986328
0.15107997 -0.14478497 0.33673131 0.010986328
0.17591983 -0.16184625 0.37804595 0.010253906
0.16637011 -0.14717355 0.34543261 0.010498047
0.17526725 -0.14930174 0.35228702 0.010253906
0.18551019 -0.15238339 0.3616336 0.009765625
0.17492808 -0.13873607 0.33129391 0.0092773438
0.17530465 -0.13440022 0.32307333 0.0095214844
0.17582329 -0.13044955 0.3157869 0.0092773438
0.18174648 -0.13063028 0.31857207 0.0083007812
0.21758786 -0.15165216 0.37271288 0.0073242188
0.17913862 -0.12118201 0.30023634 0.0065917969
0.22717266 -0.1492849 0.37296247 0.0046386719
0.15044722 -0.096119069 0.24221197 0.0041503906
0.19497865 -0.12120296 0.30813214 0.0012207031
0 0 0 0.00024414062
0 0 0 0.00073242188
0 0 0 0.0017089844
-0.26299563 -0.15226062 0.40615335 0.0026855469
-0.20949635 -0.12456541 0.32927737 0.0041503906
-0.17316003 -0.10582001 0.277262 0.0065917969
-0.19319506 -0.1214369 0.31545678 0.0083007812
-0.17862464 -0.11558066 0.29775712 0.0090332031
-0.17746924 -0.11831283 0.30236459 0.010253906
-0.17035657 -0.11712014 0.29703015 0.010986328
-0.18388531 -0.13049924 0.32855466 0.01171875
-0.17680562 -0.12965745 0.32419166 0.011962891
-0.18720724 -0.14201929 0.3528114 0.011962891
-0.17527767 -0.13771817 0.34007487 0.012451172
-0.16396633 -0.1336022 0.32808891 0.012939453
-0.16613552 -0.1405762 0.34347752 0.013671875
-0.16532135 -0.14548279 0.35385501 0.014160156
-0.14961934 -0.13715105 0.33224669 0.013916016
-0.15294042 -0.14629082 0.35313877 0.014404297
-0.14821827 -0.14821827 0.35670668 0.014160156
-0.12925766 -0.1354128 0.32505497 0.014404297
-0.13776249 -0.15153873 0.36299759 0.015136719
-0.13014123 -0.15068984 0.36035344 0.014648438
-0.12313481 -0.15049811 0.35942331 0.013427734
-0.11928454 -0.15436824 0.36830887 0.013427734
-0.10762615 -0.14798597 0.35284507 0.015869141
-0.10371726 -0.15211867 0.36254945 0.015869141
-0.10257394 -0.1611876 0.38408864 0.014648438
-0.086788595 -0.146873 0.34997186 0.015380859
-0.085019194 -0.15586852 0.37145054 0.014404297
-0.077993713 -0.15598743 0.37181669 0.014648438
-0.07269311 -0.15992486 0.38131472 0.015136719
-0.066386469 -0.16227803 0.38705745 0.015380859
-0.055889692 -0.15369666 0.36672261 0.017089844
-0.05048855 -0.15867831 0.37874672 0.017822266
-0.042177379 -0.15465038 0.36926079 0.017822266
-0.036619611 -0.1611263 0.38484532 0.018066406
-0.028332658 -0.15582962 0.37229639 0.018310547
-0.021909565 -0.16067013 0.38394642 0.018310547
-0.013403543 -0.14743897 0.35238618 0.018554688
-0.0066686319 -0.1467099 0.35067877 0.019287109
0 -0.16242114 0.38824624 0.019287109
0.0070252428 -0.15455535 0.36943164 0.019287109
0.013902611 -0.15292871 0.36550695 0.018798828
0.022123316 -0.16223766 0.38769224 0.018066406
0.027336033 -0.15034817 0.35920054 0.017578125
0.035464138 -0.15604223 0.37270215 0.018066406
0.044307549 -0.162461 0.38791031 0.016845703
0.047883488 -0.15049097 0.35920447 0.015625
0.061407916 -0.16887178 0.40293068 0.015380859
0.063845359 -0.15606643 0.37224188 0.014648438
0.067588754 -0.14869526 0.3545396 0.014404297
0.076063178 -0.15212636 0.36261332 0.013427734
0.084179498 -0.15432908 0.36778191 0.014160156
0.095172875 -0.16106178 0.38378114 0.013671875
0.098441817 -0.15469427 0.3686159 0.014160156
0.10682877 -0.15668222 0.37342593 0.013916016
0.10982822 -0.15101382 0.36006442 0.013183594
0.11608423 -0.15022665 0.35842741 0.013183594
0.12987354 -0.15873434 0.37909323 0.012207031
0.13206924 -0.15292227 0.36569202 0.011474609
0.14918669 -0.16410536 0.39309981 0.01171875
0.15027517 -0.15743113 0.37790945 0.011230469
0.15550172 -0.15550172 0.37423524 0.010742188
0.14991938 -0.14340113 0.34616318 0.011474609
0.16368279 -0.15004253 0.36347616 0.010742188
0.17701481 -0.15577304 0.37888378 0.010498047
0.17070423 -0.14444204 0.35292313 0.0095214844
0.18574311 -0.15134625 0.37166321 0.009765625
0.17396307 -0.13668528 0.33752429 0.0095214844
0.17912635 -0.13588896 0.33758214 0.0085449219
0.18323492 -0.13437226 0.33598045 0.0083007812
0.1937363 -0.13749027 0.34615579 0.0085449219
0.20481072 -0.14080736 0.35710368 0.0085449219
0.19404602 -0.12936401 0.33060741 0.0070800781
0.2108763 -0.13644938 0.35151881 0.0063476562
0.15384986 -0.096705623 0.25121233 0.0041503906
0.29201543 -0.17845386 0.46757203 0.001953125
0 0 0 0.0009765625
0 0 0 0.00073242188
-0.23308432 -0.12880975 0.35809517 0.0012207031
-0.19431554 -0.1102872 0.30382973 0.0026855469
-0.21010965 -0.12256395 0.33467743 0.0053710938
-0.22622062 -0.13573238 0.36747023 0.0068359375
-0.20254341 -0.12510034 0.33589411 0.0078125
-0.19707587 -0.12541193 0.33406606 0.0090332031
-0.17559572 -0.1152347 0.30463865 0.010986328
-0.19011608 -0.12878829 0.3380332 0.010742188
-0.17779419 -0.12445594 0.32446384 0.012207031
-0.19417992 -0.14061305 0.36428678 0.01171875
-0.17583638 -0.13187729 0.33967647 0.011474609
-0.18253081 -0.1419684 0.36373463 0.012451172
-0.16037053 -0.12953004 0.33028397 0.012451172
-0.16055763 -0.13486841 0.34243765 0.012939453
-0.16104825 -0.14091721 0.35646769 0.014404297
-0.14005676 -0.12787791 0.322451 0.014160156
-0.15596324 -0.148874 0.3743858 0.014160156
-0.15422957 -0.15422957 0.38699922 0.015625
-0.14452951 -0.15175599 0.3801249 0.014404297
-0.13107462 -0.14487194 0.36239526 0.013183594
-0.13540789 -0.15797587 0.39479205 0.013427734
-0.1244902 -0.15378202 0.38406512 0.014160156
-0.11138748 -0.14619605 0.36498839 0.014648438
-0.11273807 -0.15783326 0.39399329 0.015380859
-0.097349592 -0.14602439 0.36454096 0.014648438
-0.087094225 -0.14069067 0.35130391 0.013671875
-0.085952707 -0.15041724 0.3757177 0.013671875
-0.079035565 -0.1508861 0.37704608 0.014648438
-0.078955121 -0.16580576 0.41452226 0.015625
-0.066124715 -0.15429099 0.38592428 0.016357422
-0.054921892 -0.14416997 0.36078641 0.017333984
-0.051266357 -0.15379907 0.38506588 0.017822266
-0.046798453 -0.16379459 0.41027206 0.017822266
-0.03637097 -0.15275808 0.38277814 0.017822266
-0.029057393 -0.15255129 0.38238803 0.018798828
-0.021166991 -0.14816894 0.37150288 0.019775391
-0.014442438 -0.1516456 0.38029447 0.020263672
-0.0068294895 -0.1434193 0.35970753 0.020751953
0 -0.14494254 0.36354253 0.021484375
0.0074389451 -0.15621786 0.39180741 0.020019531
0.013331481 -0.13998055 0.35104105 0.020019531
0.021166991 -0.14816894 0.37150288 0.018554688
0.028699541 -0.15067258 0.37767878 0.019287109
0.037800785 -0.1587633 0.39782593 0.018066406
0.043692835 -0.15292493 0.38304576 0.017578125
0.047649026 -0.14294708 0.35789579 0.016357422
0.058905866 -0.15462792 0.38695747 0.016113281
0.066444151 -0.15503635 0.38778865 0.015136719
0.073290177 -0.15390939 0.38478076 0.014160156
0.077287853 -0.14754954 0.36870843 0.013916016
0.085319139 -0.1493085 0.37294826 0.013183594
0.096214034 -0.15542267 0.38808963 0.013427734
0.10517669 -0.15776505 0.3938508 0.012939453
0.10725775 -0.15016082 0.37484086 0.013183594
0.11166456 -0.14655973 0.36589631 0.012939453
0.11453099 -0.14147946 0.35333991 0.013183594
0.12862208 -0.15005907 0.37500748 0.012207031
0.1246018 -0.13771777 0.3444992 0.011474609
0.14283712 -0.149979 0.37567377 0.010742188
0.14293587 -0.14293587 0.35866061 0.011474609
0.15082563 -0.14396992 0.3620531 0.010009766
0.16365328 -0.14942256 0.37677699 0.010498047
0.17089227 -0.14953074 0.37825668 0.010986328
0.16706122 -0.14033143 0.35630855 0.009765625
0.17335093 -0.1400142 0.35701716 0.0092773438
0.18511377 -0.14397739 0.36888182 0.009765625
0.20146079 -0.15109558 0.38917708 0.0092773438
0.18920095 -0.13700758 0.35494608 0.0080566406
0.20001847 -0.14001292 0.36502182 0.0083007812
0.19768287 -0.1339142 0.35148725 0.0073242188
0.20695208 -0.13581233 0.35903841 0.0080566406
0.21722579 -0.1382346 0.36822245 0.0063476562
0.17753804 -0.10965586 0.2944257 0.0053710938
0.17080928 -0.10248557 0.27746066 0.0031738281
0.26637977 -0.15538819 0.42430845 0.0012207031
0.39963007 -0.22681709 0.62485737 0.00073242188
0 0 0 0.00073242188
-1.0341647 -0.5442971 1.580956 0.00024414062
-0.34661061 -0.18735707 0.5392701 0.0014648438
-0.16849761 -0.093609765 0.2670674 0.00390625
-0.23969831 -0.13697048 0.38744929 0.0051269531
-0.1562126 -0.091889769 0.2578001 0.0065917969
-0.19215426 -0.11645712 0.32416412 0.0080566406
-0.19883612 -0.12427257 0.34334233 0.010498047
-0.19589153 -0.12638162 0.34671652 0.010009766
-0.16892275 -0.11261515 0.30692029 0.011474609
-0.17745636 -0.12238371 0.33151513 0.010742188
-0.18967976 -0.13548553 0.36496216 0.011962891
-0.16919988 -0.12533323 0.33591485 0.012451172
-0.16666949 -0.12820728 0.34207597 0.012207031
-0.16218826 -0.12975062 0.34483176 0.012207031
-0.16661705 -0.13884754 0.36775926 0.013183594
-0.15948698 -0.1386843 0.36628091 0.013916016
-0.14414659 -0.13104236 0.34529039 0.014404297
-0.13327518 -0.12692873 0.33383334 0.014404297
-0.14721967 -0.14721967 0.38665831 0.014160156
-0.12445158 -0.13100167 0.34372097 0.013427734
-0.13441907 -0.14935452 0.39162546 0.013671875
-0.12438678 -0.14633738 0.38358864 0.013183594
-0.11680594 -0.14600743 0.38269821 0.013916016
-0.099493809 -0.13265841 0.34776029 0.013427734
-0.10578498 -0.15112139 0.39628559 0.012939453
-0.099508502 -0.15308999 0.40162578 0.012695312
-0.093859337 -0.15643221 0.41061291 0.014160156
-0.081610486 -0.14838269 0.38971412 0.014404297
-0.077416494 -0.15483299 0.40690687 0.016113281
-0.069359936 -0.15413317 0.40531975 0.016113281
-0.058636934 -0.14659235 0.38572288 0.017578125
-0.053282119 -0.15223463 0.40079719 0.018066406
-0.042082909 -0.14027636 0.36950564 0.018554688
-0.036193091 -0.14477237 0.38152307 0.018310547
-0.030424001 -0.15211998 0.40104118 0.020019531
-0.021325247 -0.14216831 0.37492028 0.020996094
-0.014225211 -0.1422521 0.37522495 0.021728516
-0.0072412048 -0.14482409 0.38206089 0.022705078
0 -0.14376017 0.37927142 0.0234375
0.007115114 -0.14230227 0.37540808 0.022705078
0.013973119 -0.13973118 0.36857539 0.022949219
0.021973103 -0.14648736 0.38631028 0.021484375
0.027475102 -0.1373755 0.36216959 0.01953125
0.034576528 -0.13830611 0.36448234 0.019287109
0.041329507 -0.13776502 0.36289045 0.018798828
0.049019549 -0.14005587 0.36873341 0.017333984
0.057778828 -0.14444707 0.38007814 0.016113281
0.064222164 -0.1427159 0.37529609 0.014648438
0.071187586 -0.14237517 0.37416723 0.014648438
0.074777074 -0.1359583 0.35708255 0.013916016
0.088762894 -0.14793815 0.38831717 0.013427734
0.094922863 -0.14603515 0.38311768 0.012451172
0.095944516 -0.13706359 0.35942179 0.012695312
0.11603236 -0.1547098 0.40556744 0.012695312
0.11541208 -0.14426512 0.37813142 0.013427734
0.11996546 -0.14113583 0.36995399 0.012451172
0.12107029 -0.13452254 0.35273424 0.012451172
0.13096736 -0.13786039 0.36171681 0.011230469
0.14040396 -0.14040396 0.36875749 0.010498047
0.16099641 -0.15332989 0.40327069 0.011474609
0.14673384 -0.13339441 0.3514879 0.01171875
0.16447094 -0.14301819 0.37772718 0.010986328
0.169394 -0.14116168 0.37388855 0.010009766
0.1908579 -0.15268633 0.40578684 0.010253906
0.16455974 -0.12658441 0.33774588 0.010009766
0.17267066 -0.12790418 0.34280545 0.0092773438
0.18611769 -0.1329412 0.3581084 0.0085449219
0.17791253 -0.12269831 0.33236733 0.0085449219
0.20018746 -0.13345829 0.36372599 0.0080566406
0.19398504 -0.12515163 0.34334216 0.0070800781
0.20661454 -0.12913409 0.35677379 0.0070800781
0.1995829 -0.12095933 0.33669624 0.005859375
0.22222503 -0.1307206 0.36674145 0.0036621094
0.1782372 -0.10184984 0.28810334 0.0021972656
0.18669951 -0.10372193 0.29591727 0.00073242188
0.3661305 -0.19790837 0.56963992 0.00073242188
0 0 0 0.00024414062
-0.51085037 -0.24887583 0.76443499 0.00048828125
-0.059222911 -0.029611455 0.090108842 0.0009765625
-0.15990461 -0.082113184 0.24761347 0.0014648438
-0.17335844 -0.091494724 0.27348271 0.0024414062
-0.22543129 -0.12237699 0.36269346 0.0031738281
-0.20354091 -0.11374345 0.33436614 0.0051269531
-0.20504321 -0.11805519 0.34435216 0.0073242188
-0.17533337 -0.10410418 0.30143249 0.0087890625
-0.1843868 -0.11301126 0.32497197 0.010742188
-0.17911604 -0.11344016 0.32412037 0.010498047
-0.17142537 -0.11231319 0.31901571 0.011230469
-0.17807762 -0.12083838 0.34140164 0.011962891
-0.18573919 -0.13070534 0.3675184 0.011230469
-0.16065362 -0.11740071 0.32872444 0.011474609
-0.16417119 -0.1247701 0.34809539 0.012451172
-0.16618571 -0.13156369 0.36592957 0.012695312
-0.16945685 -0.1399861 0.38838211 0.013671875
-0.16036376 -0.13849597 0.38348725 0.014404297
-0.14022173 -0.12686728 0.35076281 0.014404297
-0.13683158 -0.12999 0.35901743 0.013183594
-0.12390243 -0.12390243 0.34197754 0.012207031
-0.12678602 -0.13382968 0.3692584 0.011962891
-0.11858194 -0.13253275 0.3656677 0.012451172
-0.10456469 -0.12417057 0.34266582 0.012695312
-0.12194323 -0.1544614 0.42642522 0.012451172
-0.10214183 -0.13862106 0.38289997 0.012207031
-0.089883149 -0.13136767 0.36309692 0.013427734
-0.090066217 -0.14260483 0.39443487 0.013916016
-0.079464994 -0.13725771 0.37992683 0.014160156
-0.074396223 -0.14135283 0.39155552 0.015380859
-0.065337248 -0.13793418 0.38236627 0.016113281
-0.057621557 -0.13685119 0.37962964 0.016845703
-0.049123257 -0.13333455 0.37011436 0.016113281
-0.041088779 -0.13011447 0.36138728 0.018554688
-0.035277061 -0.13405283 0.37251607 0.020019531
-0.029190393 -0.13865435 0.3854681 0.021240234
-0.021585066 -0.13670541 0.38017875 0.021972656
-0.01428978 -0.1357529 0.37762249 0.0234375
-0.0074187648 -0.14095652 0.39215553 0.024414062
0 -0.14544253 0.40465617 0.024414062
0.0070206849 -0.133393 0.37111303 0.024169922
0.014506839 -0.13781497 0.38335851 0.022705078
0.020608855 -0.13052276 0.36298475 0.021728516
0.029479407 -0.14002717 0.38928461 0.021240234
0.035367284 -0.13439567 0.37346882 0.020019531
0.04314322 -0.13662019 0.37945667 0.018798828
0.050256871 -0.1364115 0.37865546 0.018554688
0.056184612 -0.13343845 0.37016258 0.017333984
0.066143878 -0.13963707 0.38708684 0.015625
0.075290412 -0.1430518 0.39626172 0.014648438
0.074363537 -0.1284461 0.35553646 0.013427734
0.085370831 -0.13517046 0.37387192 0.012207031
0.08965268 -0.13103083 0.36216593 0.012207031
0.099421345 -0.13492897 0.37270164 0.012451172
0.11138537 -0.14108811 0.38950527 0.011962891
0.1079287 -0.12816533 0.35368994 0.011962891
0.12569685 -0.14048471 0.38760775 0.012451172
0.14208779 -0.14998154 0.41382408 0.01171875
0.13603045 -0.13603045 0.37545151 0.010986328
0.14300443 -0.13585421 0.37521371 0.011230469
0.14666048 -0.13269283 0.36686927 0.010986328
0.15329435 -0.13239057 0.36658177 0.011230469
0.15208656 -0.12563673 0.3485707 0.011474609
0.16059293 -0.12713607 0.35361463 0.009765625
0.17860834 -0.13574235 0.37870678 0.0092773438
0.19167931 -0.14007333 0.39220828 0.0090332031
0.19054656 -0.13408831 0.37703064 0.0087890625
0.18346033 -0.12449093 0.35172111 0.0085449219
0.19394507 -0.12706746 0.36092395 0.0085449219
0.21155438 -0.13398443 0.38281932 0.0073242188
0.19543082 -0.11978017 0.34443647 0.0068359375
0.15231475 -0.090436883 0.26185897 0.005859375
0.18159546 -0.10455497 0.30497369 0.0046386719
0.16801009 -0.093887985 0.275998 0.0031738281
0.16404383 -0.089052364 0.26392797 0.0021972656
0.013617279 -0.0071868966 0.021482024 0.001953125
0.28965387 -0.14482693 0.44071415 0.00024414062
0.0043615829 -0.0021248737 0.0065266597 0.00073242188
-0.64308184 -0.29680702 0.95800531 0.00073242188
-0.21243273 -0.10062603 0.32177439 0.0009765625
-0.021091692 -0.010545846 0.033125822 0.0009765625
-0.29138735 -0.14985636 0.46675491 0.0021972656
-0.20802294 -0.11012979 0.34025705 0.0036621094
-0.2009555 -0.1096121 0.33606774 0.0061035156
-0.1948199 -0.10958621 0.33356833 0.0080566406
-0.20696937 -0.12017576 0.36334369 0.0090332031
-0.19363996 -0.11618396 0.34909636 0.010009766
-0.19392326 -0.12036618 0.35961851 0.010498047
-0.16893367 -0.10860022 0.32281774 0.010742188
-0.19098306 -0.12732203 0.37677088 0.010986328
-0.1540443 -0.10664605 0.31435958 0.011230469
-0.1843679 -0.13274488 0.39000261 0.010498047
-0.15963005 -0.11972254 0.3507897 0.012451172
-0.15849192 -0.12403716 0.3626489 0.013427734
-0.14600563 -0.11945914 0.34869424 0.013427734
-0.14466126 -0.12399538 0.361518 0.013427734
-0.14866465 -0.1337982 0.38981658 0.01171875
-0.12591857 -0.11929129 0.34743032 0.012207031
-0.13375728 -0.13375728 0.38955116 0.011474609
-0.1162288 -0.12306578 0.35849893 0.01171875
-0.11496356 -0.12933402 0.37692872 0.01171875
-0.099739291 -0.11968715 0.34902862 0.011230469
-0.098662391 -0.12685166 0.37019324 0.012451172
-0.100499 -0.13915247 0.4064213 0.012939453
-0.097346507 -0.14601976 0.42684457 0.013916016
-0.084755257 -0.13869043 0.40577325 0.015380859
-0.071316995 -0.1283706 0.37590364 0.015380859
-0.067084692 -0.13416938 0.39320987 0.015869141
-0.062924683 -0.14158055 0.41525316 0.016845703
-0.048829734 -0.12556219 0.36853498 0.017089844
-0.043871228 -0.13161369 0.38654357 0.018066406
-0.037783109 -0.1360192 0.39970386 0.020019531
-0.030402448 -0.13681102 0.40221655 0.021240234
-0.022493076 -0.13495846 0.39691487 0.0234375
-0.014531546 -0.13078392 0.38473868 0.024902344
-0.0075226072 -0.13540693 0.39840195 0.025146484
0 -0.13149685 0.38691804 0.024414062
0.0068321261 -0.12297827 0.36183363 0.024902344
0.014349901 -0.12914911 0.37992945 0.025634766
0.021839522 -0.13103715 0.38538224 0.024169922
0.029314054 -0.13191324 0.38781738 0.022705078
0.036152184 -0.13014787 0.38245046 0.020507812
0.042568125 -0.12770438 0.37506211 0.019287109
0.049082737 -0.12621278 0.37044451 0.016845703
0.056718808 -0.12761733 0.37429929 0.016601562
0.066760607 -0.13352121 0.39131027 0.016113281
0.067005642 -0.12061016 0.35317898 0.014648438
0.077659465 -0.12707913 0.37180153 0.013427734
0.088769726 -0.13315459 0.38923714 0.012451172
0.10119369 -0.14011435 0.40923068 0.01171875
0.10711206 -0.13771553 0.40189746 0.01171875
0.1130025 -0.135603 0.39544201 0.01171875
0.11749953 -0.13218698 0.38524333 0.011962891
0.12755366 -0.13505682 0.39342961 0.012451172
0.13312931 -0.13312931 0.38772231 0.011962891
0.1328408 -0.12584919 0.36652991 0.011474609
0.15314874 -0.13783386 0.40157437 0.010498047
0.15365762 -0.13170654 0.38400045 0.010742188
0.16884241 -0.13814378 0.40323359 0.010009766
0.18063419 -0.14136589 0.41331309 0.010742188
0.1576196 -0.1182147 0.34637171 0.010009766
0.16277526 -0.11719819 0.34432665 0.0087890625
0.19897388 -0.13775113 0.40604776 0.0092773438
0.19362338 -0.12908225 0.3819797 0.0085449219
0.19513193 -0.12544195 0.37288037 0.0078125
0.22261836 -0.13817693 0.41283178 0.0080566406
0.18843204 -0.11305921 0.33970746 0.0070800781
0.20600221 -0.11961418 0.36164579 0.0056152344
0.21060278 -0.11846408 0.36059159 0.0048828125
0.17332411 -0.094540432 0.2898584 0.0031738281
0.27957875 -0.14801227 0.45729876 0.0014648438
-0.5813328 -0.25340149 0.86235225 0.00048828125
-1.4107161 -0.63110983 2.1277902 0.00024414062
-0.17035402 -0.080444947 0.2664353 0.00073242188
-0.22689068 -0.11344534 0.36962399 0.0021972656
-0.21038568 -0.10838049 0.35046071 0.0043945312
-0.17675912 -0.093903288 0.3015025 0.0056152344
-0.16551585 -0.090766758 0.28952312 0.0073242188
-0.16871963 -0.095607787 0.30313498 0.0090332031
-0.19148272 -0.11224849 0.35396716 0.0092773438
-0.18686506 -0.1134538 0.35604468 0.009765625
-0.16210139 -0.10206383 0.31895521 0.010253906
-0.16492666 -0.10783666 0.33578962 0.009765625
-0.1700533 -0.11563624 0.35900852 0.010986328
-0.15938246 -0.11289591 0.34966871 0.012207031
-0.15590724 -0.11523578 0.35626873 0.013183594
-0.14119047 -0.10910171 0.33686787 0.012695312
-0.13858475 -0.11218765 0.34611043 0.011230469
-0.15015186 -0.12762909 0.39358738 0.012207031
-0.1434667 -0.12836494 0.39583525 0.01171875
-0.13789679 -0.13023587 0.40170267 0.011962891
-0.13206437 -0.13206437 0.40754035 0.011962891
-0.11635325 -0.12362533 0.38175496 0.011962891
-0.10898909 -0.12352096 0.38174257 0.012695312
-0.11033554 -0.13397889 0.41443858 0.012939453
-0.10047186 -0.13138628 0.4068107 0.014160156
-0.090656273 -0.12842971 0.39804906 0.014648438
-0.086694449 -0.13398233 0.41566691 0.014404297
-0.076482117 -0.13001962 0.40375832 0.015625
-0.068009228 -0.12846185 0.3992832 0.014648438
-0.060280561 -0.12809621 0.3984831 0.015136719
-0.048262998 -0.11721014 0.36489904 0.016845703
-0.039248385 -0.11120376 0.34643647 0.018798828
-0.036112949 -0.12278403 0.38273829 0.020996094
-0.028773632 -0.12228792 0.38137847 0.021728516
-0.020558145 -0.11649615 0.36345553 0.024169922
-0.01436949 -0.12214066 0.38117144 0.024902344
-0.0071688839 -0.12187103 0.38039353 0.025146484
0 -0.11816282 0.36883977 0.026367188
0.0070594354 -0.12001041 0.37458602 0.026123047
0.01436949 -0.12214066 0.38117144 0.026855469
0.020995554 -0.11897479 0.37118864 0.025878906
0.027462428 -0.1167153 0.36399922 0.024902344
0.035294268 -0.12000052 0.37406161 0.021972656
0.04077471 -0.11552835 0.359909 0.020263672
0.049660087 -0.12060306 0.37546194 0.018554688
0.05752736 -0.12224565 0.38028315 0.016845703
0.067521125 -0.12753987 0.39641756 0.016113281
0.07431753 -0.12633981 0.39233118 0.014648438
0.07580816 -0.11715806 0.36347127 0.012451172
0.0902256 -0.12781958 0.3961581 0.011474609
0.094192378 -0.12317465 0.38138503 0.011230469
0.10609186 -0.12882584 0.39849859 0.010986328
0.11325272 -0.12835307 0.39667624 0.010986328
0.13532081 -0.14377838 0.44398755 0.011962891
0.13715528 -0.13715528 0.4232505 0.01171875
0.13411015 -0.12665959 0.39067191 0.010986328
0.14909934 -0.13340467 0.41137612 0.011230469
0.1425229 -0.12114447 0.37358987 0.010742188
0.16717011 -0.13532817 0.41750139 0.010498047
0.1524857 -0.11782985 0.36381727 0.010986328
0.17622598 -0.13025399 0.40269974 0.009765625
0.1953851 -0.13839777 0.42865479 0.010498047
0.17840973 -0.12131862 0.37665021 0.010009766
0.16062048 -0.10502108 0.32702228 0.0087890625
0.18114609 -0.11405493 0.35642809 0.0085449219
0.20277816 -0.12311532 0.38636482 0.0075683594
0.19055094 -0.11170227 0.3522447 0.0063476562
0.1715793 -0.097228259 0.3082729 0.0056152344
0.20543438 -0.11265756 0.35934928 0.0048828125
0.20208137 -0.10735573 0.34469527 0.0034179688
0.13705413 -0.070603639 0.22830492 0.0017089844
0.52958089 -0.24332094 0.812962 0
0.052895036 -0.023663569 0.079781853 0.00048828125
-0.83983064 -0.3536129 1.2616755 0.00024414062
-0.53278005 -0.23039137 0.81463701 0.00024414062
-0.3662895 -0.16279535 0.57064015 0.00073242188
-0.5039528 -0.23037842 0.80084234 0.00073242188
-0.034686621 -0.016323116 0.056295644 0.0014648438
-0.062088057 -0.030103303 0.10305128 0.0024414062
-0.23033799 -0.115169 0.39152732 0.0041503906
-0.19693226 -0.10164245 0.34334162 0.0053710938
-0.19855438 -0.10589566 0.35563752 0.0068359375
-0.18564157 -0.10242295 0.34219283 0.0092773438
-0.1582775 -0.090444289 0.30079758 0.010009766
-0.1791193 -0.10614476 0.35163411 0.009765625
-0.1901567 -0.1170195 0.38639268 0.0092773438
-0.16514836 -0.10569495 0.34807727 0.011230469
-0.16962945 -0.1130863 0.37165749 0.01171875
-0.16657339 -0.11587714 0.38026467 0.012451172
-0.14647204 -0.10652512 0.34923542 0.012451172
-0.15346949 -0.11692914 0.383147 0.011474609
-0.14809823 -0.11847857 0.38817838 0.010253906
-0.13548908 -0.11409606 0.37390077 0.011230469
-0.12870003 -0.11440002 0.37508103 0.011962891
-0.12693404 -0.11946733 0.39197224 0.01171875
-0.11827504 -0.11827504 0.38839817 0.012451172
-0.11238877 -0.11988136 0.39406088 0.013183594
-0.10978373 -0.12546712 0.41285795 0.014160156
-0.10134066 -0.12472697 0.410871 0.014160156
-0.093822435 -0.12509657 0.41254082 0.015625
-0.080472276 -0.11705059 0.38642225 0.015625
-0.075143881 -0.12023021 0.39732921 0.014404297
-0.064345829 -0.11439259 0.37840509 0.014404297
-0.056287538 -0.11257508 0.37272722 0.015625
-0.051883593 -0.11859107 0.39296466 0.016113281
-0.040377617 -0.10767366 0.3570447 0.018554688
-0.035423499 -0.1133552 0.37611654 0.020996094
-0.028074386 -0.11229754 0.37279743 0.022705078
-0.021565806 -0.11501765 0.38198045 0.024414062
-0.014714492 -0.11771593 0.39105421 0.025634766
-0.0072315033 -0.11570405 0.38443735 0.026123047
0 -0.11161532 0.37087366 0.026855469
0.0072498112 -0.11599698 0.38541061 0.027587891
0.01401903 -0.11215224 0.37257156 0.027832031
0.02101706 -0.11209099 0.37226084 0.027099609
0.026831511 -0.10732605 0.35629338 0.025146484
0.036336474 -0.11627672 0.38581026 0.023193359
0.04212841 -0.11234244 0.37252635 0.020507812
0.048951592 -0.11188936 0.37075782 0.019042969
0.058469225 -0.11693845 0.38717401 0.017578125
0.066468924 -0.11816698 0.39089054 0.016357422
0.072065696 -0.11530512 0.38105309 0.014648438
0.079876184 -0.11618355 0.38355985 0.013427734
0.084959023 -0.11327869 0.37356806 0.011230469
0.095736571 -0.11782963 0.38815004 0.010742188
0.10677595 -0.12202966 0.40154675 0.011230469
0.10998044 -0.11731247 0.38561672 0.010742188
0.11287305 -0.11287305 0.37065881 0.011230469
0.13625859 -0.12824337 0.42076644 0.011962891
0.13218698 -0.11749953 0.38524333 0.011962891
0.15113522 -0.12727176 0.4170785 0.011230469
0.13834117 -0.11067293 0.36260426 0.011474609
0.13237652 -0.10085832 0.33048701 0.010986328
0.17069481 -0.12414167 0.40699011 0.010986328
0.16382337 -0.11396407 0.37398672 0.010253906
0.17288373 -0.11525582 0.37878758 0.009765625
0.16304725 -0.10435023 0.34364882 0.0085449219
0.19492143 -0.11995164 0.39607447 0.0075683594
0.17288132 -0.10244818 0.33938816 0.0063476562
0.17520313 -0.10011607 0.33296379 0.0053710938
0.18142244 -0.10009515 0.3344157 0.0046386719
0.11654278 -0.062156148 0.20874375 0.0036621094
0.24396084 -0.12591527 0.42533365 0.0024414062
0.077445529 -0.038722765 0.13164151 0.0009765625
-0.82972598 -0.31912538 1.2213112 0.0012207031
-0.80428284 -0.31748006 1.2037606 0.00048828125
-0.7051729 -0.28588092 1.0742408 0.00073242188
-0.12888959 -0.053704005 0.20006388 0
-0.56827945 -0.24354836 0.89983994 0.0009765625
-0.27808759 -0.1226857 0.44976395 0.0009765625
-0.21552373 -0.097965345 0.35652223 0.0009765625
-0.094993435 -0.044528171 0.16095513 0.0021972656
-0.22027117 -0.10658284 0.38288069 0.0041503906
-0.14520667 -0.072603337 0.2593613 0.0070800781
-0.18766138 -0.097066239 0.34503844 0.0068359375
-0.19552574 -0.10474593 0.37074345 0.0083007812
-0.17564042 -0.097578019 0.34412348 0.0080566406
-0.1990338 -0.11482719 0.40375593 0.0095214844
-0.16855924 -0.10113554 0.35478607 0.01171875
-0.17050156 -0.10656349 0.3731828 0.012207031
-0.15753098 -0.1027376 0.35936439 0.01171875
-0.15554133 -0.10605089 0.3707068 0.010498047
-0.15710257 -0.11221614 0.39216927 0.010253906
-0.14595926 -0.10946944 0.38262811 0.011230469
-0.14342844 -0.11323299 0.39596626 0.011962891
-0.13337478 -0.11114565 0.38894415 0.011962891
-0.13046713 -0.11511806 0.40320975 0.012939453
-0.11474359 -0.10757212 0.37717256 0.013183594
-0.1273243 -0.1273243 0.44693494 0.013916016
-0.11749051 -0.1258827 0.44239861 0.014404297
-0.10382163 -0.1197942 0.42150742 0.014892578
-0.08569932 -0.10712416 0.37737495 0.014648438
-0.088136233 -0.12018577 0.42387614 0.014160156
-0.081949167 -0.12292377 0.43400788 0.013916016
-0.064733475 -0.10788913 0.38131523 0.013916016
-0.05881688 -0.11028165 0.39013761 0.014404297
-0.052189358 -0.11183434 0.39596528 0.015869141
-0.044138659 -0.11034665 0.39098898 0.017822266
-0.037925661 -0.113777 0.40340078 0.021240234
-0.031470612 -0.11801481 0.41864643 0.022949219
-0.02147354 -0.10736772 0.38103396 0.024414062
-0.014837626 -0.11128221 0.39504287 0.025634766
-0.007292639 -0.10938959 0.38839334 0.025146484
0 -0.10692129 0.37965211 0.027099609
0.0072559007 -0.10883851 0.38643673 0.027832031
0.014323452 -0.10742589 0.38135326 0.027587891
0.021638721 -0.10819362 0.38396499 0.027099609
0.027802708 -0.10426017 0.36985314 0.025390625
0.033986524 -0.10195958 0.36150166 0.022949219
0.042381894 -0.10595474 0.37542722 0.021240234
0.050014801 -0.10717458 0.37946674 0.019775391
0.060130406 -0.11274451 0.39885035 0.018310547
0.065061241 -0.1084354 0.38324592 0.016845703
0.075952888 -0.11392935 0.40225121 0.014648438
0.081755333 -0.11148454 0.39318827 0.013183594
0.086784117 -0.10848016 0.38215184 0.010986328
0.099837504 -0.11519713 0.40533221 0.010498047
0.10491122 -0.11240489 0.39503258 0.010253906
0.11255038 -0.11255038 0.39507538 0.011474609
0.1301569 -0.1220221 0.42783755 0.012207031
0.12050089 -0.10632432 0.37240902 0.01171875
0.13496637 -0.11247198 0.39358547 0.012451172
0.14844343 -0.11719219 0.40981123 0.010498047
0.15540984 -0.11655739 0.40740258 0.010742188
0.15856399 -0.11326001 0.39581734 0.011230469
0.18634535 -0.12705363 0.44412306 0.010009766
0.1804302 -0.11767188 0.4116028 0.0087890625
0.17377257 -0.10860787 0.38034216 0.0080566406
0.14067724 -0.084406354 0.29609963 0.0063476562
0.19075888 -0.1100532 0.3869696 0.0063476562
0.21910246 -0.1217236 0.42927647 0.0043945312
0.13939835 -0.074677691 0.26431829 0.0036621094
0.21736658 -0.112431 0.39965507 0.0041503906
0.15003082 -0.075015411 0.26797795 0.0014648438
0.10742532 -0.051979993 0.18672928 0.0012207031
0.15128583 -0.07091523 0.25633591 0.0009765625
1.2925344 -0.57023579 2.0904758 0.00048828125
0.9183383 -0.38264102 1.4254552 0.00024414062
1.2458962 -0.5050931 1.8979638 0
0.68512988 -0.27044597 1.0254258 0.00073242188
-0.8817504 -0.31652576 1.293341 0.00073242188
-0.76750219 -0.28276396 1.1447107 0.00024414062
-0.27756235 -0.10502359 0.42137432 0.00024414062
-0.59881699 -0.23287323 0.92634356 0.00073242188
-0.55715525 -0.22941686 0.8982324 0.0012207031
-0.13923347 -0.062879629 0.2413633 0.0012207031
-0.20517524 -0.095748447 0.36556187 0.0024414062
-0.23086189 -0.11145058 0.42351535 0.00390625
-0.1794465 -0.089723252 0.33958292 0.0053710938
-0.21302746 -0.11045867 0.4166694 0.0073242188
-0.18733992 -0.10087533 0.37950632 0.0087890625
-0.17574781 -0.098418772 0.36951616 0.010742188
-0.19020121 -0.1109507 0.41597629 0.010253906
-0.1717312 -0.10453204 0.39157024 0.010253906
-0.1504927 -0.095768087 0.3586041 0.010498047
-0.15116093 -0.10077395 0.37736401 0.010498047
-0.15604162 -0.10922915 0.40918791 0.011230469
-0.14466265 -0.10659353 0.39958808 0.01171875
-0.13547885 -0.10537243 0.39537013 0.012451172
-0.12336969 -0.10159857 0.38162103 0.012695312
-0.12861812 -0.11254086 0.42322654 0.012451172
-0.11644822 -0.108685 0.40924236 0.013916016
-0.11562072 -0.11562072 0.43592185 0.012939453
-0.10534643 -0.11345 0.42829081 0.013916016
-0.091425024 -0.10666253 0.40317649 0.014160156
-0.08482337 -0.10795701 0.40856537 0.014404297
-0.079115331 -0.11076146 0.41965982 0.013427734
-0.068886995 -0.10715754 0.4064377 0.012451172
-0.058418728 -0.10223277 0.38813591 0.013183594
-0.053638104 -0.10727621 0.40763903 0.014648438
-0.044498418 -0.10382963 0.39484432 0.017822266
-0.037769467 -0.1057545 0.40242711 0.020751953
-0.028626023 -0.10019108 0.38146183 0.023193359
-0.021043867 -0.098204702 0.37405646 0.024902344
-0.014147335 -0.099031344 0.3773188 0.025146484
-0.0069653918 -0.097515486 0.37161064 0.025390625
0 -0.097009972 0.36970663 0.025878906
0.0071865148 -0.10061121 0.38340777 0.02734375
0.014110493 -0.09877345 0.37633622 0.02734375
0.021099102 -0.098462462 0.37503824 0.027099609
0.028993966 -0.10147887 0.38636491 0.026123047
0.034736883 -0.097263277 0.37011546 0.022705078
0.042846251 -0.099974573 0.38018429 0.020507812
0.047607027 -0.095214054 0.36180404 0.019287109
0.05505123 -0.09633965 0.36576214 0.018554688
0.062475078 -0.097183451 0.36860698 0.016357422
0.073281944 -0.10259471 0.38871717 0.014892578
0.084023148 -0.10693854 0.40471098 0.012939453
0.090336628 -0.10539274 0.39837676 0.011230469
0.092883572 -0.10002846 0.37762249 0.010009766
0.11107668 -0.11107668 0.41878954 0.010253906
0.11510045 -0.10742708 0.40450576 0.010986328
0.12346194 -0.10802919 0.40625975 0.01171875
0.1373132 -0.11308145 0.42475265 0.01171875
0.1447451 -0.11257951 0.42241198 0.010253906
0.14264879 -0.10510962 0.39402536 0.009765625
0.14830983 -0.10381689 0.38891283 0.009765625
0.16840501 -0.11227001 0.42041284 0.0083007812
0.16882685 -0.10743527 0.40229192 0.0075683594
0.13881277 -0.084494725 0.31651175 0.0063476562
0.19923885 -0.11622266 0.4357419 0.0053710938
0.18720962 -0.10483738 0.39361504 0.0036621094
0.16239044 -0.087441005 0.32896459 0.0026855469
0.18960795 -0.098315232 0.37086219 0.0017089844
0.18360892 -0.09180446 0.34745982 0.0012207031
0.045982759 -0.022198576 0.084355213 0.0009765625
1.2659841 -0.57173467 2.194602 0.00024414062
0.0041891374 -0.0017249389 0.0067536272 0.00073242188
1.5232306 -0.59236735 2.3563707 0.00073242188
0.26674029 -0.098272733 0.3978366 0.00073242188
-0.96444458 -0.32148153 1.4100277 0.00024414062
-0.74399751 -0.25452545 1.1060674 0.00048828125
-0.75599086 -0.26561841 1.1440287 0.00073242188
-0.47052658 -0.16991235 0.72560906 0.00024414062
-0.2320853 -0.086203113 0.36516732 0.00024414062
-0.35909557 -0.14146189 0.59054875 0.00073242188
-0.2397746 -0.097408429 0.40402773 0.00048828125
-0.01195261 -0.0050123846 0.020669617 0.0009765625
-0.26666141 -0.11555327 0.4740603 0.0012207031
-0.11957745 -0.05360369 0.21893223 0.0014648438
-0.1965851 -0.091271661 0.3713811 0.0029296875
-0.1855289 -0.089328736 0.36236602 0.0046386719
-0.20315224 -0.10157612 0.41106987 0.0063476562
-0.1769561 -0.092017174 0.37174156 0.0078125
-0.16048773 -0.086930849 0.3507956 0.0073242188
-0.14336894 -0.081034616 0.32680833 0.0070800781
-0.1783184 -0.10536997 0.42490056 0.0073242188
-0.15652756 -0.096898019 0.39084858 0.0080566406
-0.15308999 -0.099508502 0.40162578 0.0087890625
-0.15562016 -0.10647696 0.43013018 0.009765625
-0.14267938 -0.10304621 0.41672233 0.011230469
-0.1350359 -0.10326275 0.418111 0.010742188
-0.11984135 -0.097371094 0.39477697 0.01171875
-0.12195753 -0.10569651 0.42911932 0.011962891
-0.10889174 -0.10111376 0.41108268 0.012451172
-0.098358542 -0.098358542 0.40042871 0.012207031
-0.10043612 -0.10880581 0.44354853 0.013916016
-0.088288546 -0.10434102 0.42588592 0.014404297
-0.080265023 -0.10434453 0.42640609 0.012207031
-0.069090664 -0.099797621 0.40827277 0.011962891
-0.055506863 -0.090198658 0.36937171 0.01171875
-0.051092654 -0.094886363 0.38891485 0.012939453
-0.042529602 -0.09214747 0.37798357 0.017822266
-0.037603151 -0.097768195 0.40130603 0.020019531
-0.029447448 -0.095704205 0.39304876 0.022705078
-0.022545369 -0.097696602 0.40140256 0.024658203
-0.01444714 -0.09390641 0.38594782 0.024902344
-0.007096536 -0.092254966 0.37923011 0.025390625
0 -0.089621887 0.36842895 0.026611328
0.0069302111 -0.090092741 0.37034193 0.028076172
0.013782054 -0.089583352 0.36818042 0.029052734
0.020661971 -0.089535214 0.36787015 0.027832031
0.028266598 -0.091866441 0.37728742 0.025146484
0.032902759 -0.085547172 0.35114279 0.0234375
0.042971469 -0.093104847 0.38191065 0.020263672
0.050191779 -0.093213305 0.3820574 0.018798828
0.055800546 -0.090675898 0.37132606 0.017578125
0.063978948 -0.092414029 0.37806642 0.016357422
0.076608293 -0.099590786 0.40697983 0.015869141
0.079058379 -0.093432635 0.38136148 0.012695312
0.093012579 -0.10076363 0.41076452 0.011474609
0.099537894 -0.099537894 0.40522999 0.010253906
0.11117087 -0.1032301 0.41968676 0.010986328
0.11141131 -0.096556462 0.39201143 0.010498047
0.12271524 -0.099706136 0.40424404 0.010253906
0.12925734 -0.09884385 0.40021884 0.009765625
0.14171749 -0.10235152 0.41391295 0.0090332031
0.14551495 -0.099562868 0.40219966 0.0080566406
0.14180225 -0.092171475 0.37201282 0.0068359375
0.15947397 -0.098721981 0.39820573 0.0053710938
0.14610605 -0.086335398 0.34814432 0.0051269531
0.15770583 -0.089138083 0.35948917 0.0041503906
0.13119562 -0.071064293 0.28676865 0.0021972656
0.13900648 -0.072283365 0.29201865 0.0017089844
0.2792244 -0.1396122 0.56499863 0.0009765625
0.022625476 -0.010893748 0.04419098 0.0009765625
0.13994513 -0.058686674 0.24200676 0.00048828125
0.050190594 -0.019772053 0.082540676 0.00048828125
0.2320853 -0.086203113 0.36516732 0.00024414062
-0.41868952 -0.12882754 0.61028558 0.0014648438
-1.0060883 -0.3177121 1.4912471 0.00073242188
-0.016030708 -0.0051991483 0.024187822 0.00048828125
-0.51091784 -0.17030595 0.78563792 0.00048828125
-0.020954832 -0.0071845143 0.03287911 0.00048828125
-0.56217366 -0.19841424 0.90126044 0.00024414062
-0.60256422 -0.21911426 0.98843998 0.00073242188
-0.46447515 -0.17417818 0.78080708 0.00048828125
-0.12969398 -0.053666476 0.23704688 0.00073242188
-0.10176425 -0.043613255 0.19196841 0.0017089844
-0.18178689 -0.080794178 0.35463402 0.0024414062
-0.16823639 -0.077647567 0.34010679 0.0031738281
-0.18280897 -0.087748297 0.38378996 0.0046386719
-0.16856751 -0.084283754 0.36831811 0.0053710938
-0.15869592 -0.08279787 0.36170262 0.0043945312
-0.15009561 -0.081870332 0.35769311 0.0041503906
-0.18183115 -0.10390352 0.45418453 0.0051269531
-0.17695953 -0.10617572 0.46449426 0.005859375
-0.15443225 -0.097536162 0.42714867 0.0073242188
-0.1453765 -0.096917666 0.42496422 0.0078125
-0.13575111 -0.095824324 0.42074069 0.0090332031
-0.12942019 -0.097065151 0.42679915 0.0095214844
-0.11146336 -0.089170679 0.39266101 0.0092773438
-0.1117417 -0.095778599 0.42237535 0.010009766
-0.10265591 -0.094759293 0.4184784 0.011230469
-0.089110836 -0.089110836 0.39407551 0.012451172
-0.09134829 -0.099652685 0.44127002 0.012695312
-0.072417483 -0.086900987 0.38527358 0.012207031
-0.068617016 -0.091489345 0.40607119 0.010986328
-0.058749165 -0.088123746 0.39153096 0.010742188
-0.052133899 -0.089372396 0.39743853 0.013183594
-0.044084165 -0.08816833 0.39239407 0.016113281
-0.034285128 -0.082284316 0.36645344 0.019775391
-0.030118698 -0.090356097 0.40262339 0.023681641
-0.02166179 -0.08664716 0.38626266 0.023925781
-0.014523051 -0.087138303 0.38857174 0.024169922
-0.0073194574 -0.087833494 0.39174417 0.024902344
0 -0.082950413 0.36998805 0.026367188
0.0070970939 -0.085165128 0.37984309 0.026855469
0.014745343 -0.088472053 0.39451927 0.026367188
0.020550929 -0.082203716 0.36645433 0.025390625
0.027158629 -0.081475891 0.36305353 0.024169922
0.034562368 -0.082949683 0.36941668 0.021484375
0.041536588 -0.083073176 0.36971804 0.019042969
0.051230591 -0.087823868 0.39055222 0.016845703
0.057718478 -0.086577713 0.384662 0.017089844
0.062830038 -0.083773375 0.37182423 0.016113281
0.073334165 -0.088000998 0.39015046 0.014892578
0.091147088 -0.099433191 0.44029808 0.012695312
0.08823505 -0.08823505 0.39020252 0.010009766
0.091775328 -0.084715687 0.37412354 0.0095214844
0.10793232 -0.092513412 0.40797621 0.009765625
0.12095539 -0.096764296 0.4260993 0.009765625
0.12855548 -0.096416607 0.42394748 0.0087890625
